35.66252840529938,-20.7238251525383,0.14986939964524193
-20.51217002925334,106.36120060798937,0.20309584137362643
10.507247244830138,82.79018234342192,0.23495025818141563
-44.46602426894087,-347.1722734874556,0.19894033801926533
19.879944015543266,466.093497914392,0.19136990173065024
-7.763812285846525,-167.75179501019448,0.2678266542150255
13.85787999734487,29.746164838680517,0.2416490728992463
6.011307308103037,232.9221130604831,0.15828115431591366
-11.78329079113361,28.878960600600788,0.2184697708199495
16.06474178289641,-69.86711426299792,0.1454926549169186
38.996605187083205,176.7731008129241,0.1892574949576272
-21.48293913321302,29.485984032255992,0.20251310778024653
34.18875376933981,-339.2138914836357,0.11211759834678442
-23.066532003418814,99.19300155858951,0.18936961036919367
-18.728675157334614,35.17133425061635,0.2711801143579149
-37.74144261732331,87.57404381389337,0.07531080639671393
-6.435627048145499,1.9996915700580824,0.13615502791778694
-6.766312182461092,512.5241978317935,0.15424901411641972
12.49802391716172,-157.01244037465386,0.29021094292903404
-20.84403069000588,106.50069785471008,0.2279887431669014
-7.798577663586523,31.30543514641746,0.22457941799792352
1.6756801160141972,-49.87670034734662,0.11126564346802531
-33.31967734828948,13.652802907135019,0.1851252000536738
-27.724350898907637,30.80136693129428,0.26437202570731794
34.478377822694156,5.608767979903292,0.2787647833710622
-19.92316258658225,296.79686829282826,0.11865726090570272
13.190296967758124,30.57872447880686,0.2557973773139828
-21.89350707533791,-162.0190575051574,0.16465071267919054
45.50449942231552,-35.777451116660245,0.17106047162117216
14.341957678531973,248.87417424716912,0.19486565457012223
20.802837399634818,58.6531132335684,0.16625469581536498
5.072920389743118,-114.95628579765886,0.20353035764704303
-15.192607366974634,-132.63602427656684,0.16913747333211915
-9.027925467480676,249.42786864269252,0.19805469862380826
-25.550175423305056,-31.473321218015794,0.17732156538023483
24.660408627061678,135.27771584732477,0.19427497136895744
-15.774913236716799,236.63276490853366,0.18301921828317883
0.18008824517942396,-140.67738707748728,0.20938921381323083
20.112132112038598,-249.58577996930723,0.19032247804580765
-4.032959657788017,281.95895986044815,0.1621728562631274
-14.0176658449185,-613.7236260868635,0.10287865008826037
-23.283987676953185,-334.3710886230144,0.26772648407422245
5.216446934635675,167.9506650520067,0.17590145258603568
15.222415371546944,763.5691935986215,0.16286497723163532
-21.937363566169374,-172.45089151957035,0.23777368621835235
-0.9605854077839475,14.746782872236702,0.12438568932795474
-17.838520902779813,-317.67314350798557,0.18271717918283942
34.23563939060587,82.64693281435758,0.2081798775625247
20.4486708523607,180.70282954577925,0.2051271424241088
-22.503389222865337,-58.63788767265326,0.17773609411338734
38.61128351375132,-156.44329336882575,0.2511555763556461
-18.795077091987753,312.09350671989586,0.22103242161502734
-7.498996863653943,-199.0387736107301,0.1927082942012053
-17.29359866675907,155.24323067714045,0.1757569469549597
26.692969528296754,38.68054736447716,0.16573533212002545
-2.7474852542506873,80.06140908818888,0.2318655378075552
-9.375360995812063,148.7008049354983,0.20239152898699705
28.479593604367622,147.41100003670243,0.18701567818742865
5.235133820082146,82.560264061055,0.14381121985746698
35.875969777226956,52.43783165375423,0.1774601367846696
2.4603450333878163,276.19596712662053,0.24253311226659224
1.2402370410572376,-323.7091232171397,0.23878351551243493
-9.013801826673419,269.8552935943853,0.14731397017639614
22.419860271190863,151.82053430719154,0.20904775630736327
-0.6019524676884812,-18.08295570287531,0.14325671717247912
8.539112406828226,220.04561165115751,0.2601590197859581
16.254796732317992,-0.8415591047217915,0.2600241862667645
-6.275747877593261,138.2137420302612,0.20169103919378276
-7.600883194767036,115.49587049134927,0.2291134080696967
8.602778227954985,89.63705153224787,0.2583155902220234
5.901792063753569,-14.582931269242541,0.21260992414514945
2.390159818521753,-370.36891873416863,0.1431796522202976
-16.338626325890488,-1.2209242890564453,0.2735661299930523
-3.6096565089996417,193.41470422769038,0.2347904329279698
4.533481944306224,-122.29681930911853,0.19272646856384767
30.086438901172883,96.31554662556987,0.1532058144645694
-2.0163890554078114,223.5401762753048,0.18757741607751444
14.334177801824437,-5.1405595549024,0.22699855652737738
-19.09846708558006,-435.71838985985033,0.185470933333167
-7.410758438234866,247.79754296995455,0.30150306089530043
17.68498796303736,-181.29845859663635,0.2574240410807843
-14.595740193326353,-364.5481340266617,0.09802468126700448
12.8116440443236,153.0014687783868,0.1980315209945304
18.779441895405892,334.8705834954105,0.19079001828192094
4.4352516424817505,15.87904389218755,0.14551893687101203
-8.007618381038622,-60.78439732143721,0.20545758012706303
-16.83448664461111,245.25436630108902,0.1814545776890255
-4.64933575746912,203.17718993774275,0.20529650765852586
14.320144678341443,392.3718195641255,0.20971743269145146
-0.9472798956393652,76.1436168825066,0.15767461954260584
25.578610194867288,-159.06605016501928,0.14036999941574163
-16.711751342968206,307.89704819815194,0.20155036848819874
-11.812284547876233,-199.38291140012444,0.13652589868335396
38.05404861695445,-131.25585292513088,0.2722622819874132
4.13283391285492,56.04593133564485,0.3424106875388842
-3.021648109744652,18.336230044605678,0.3104787446264048
-36.86190186085122,30.88955413305022,0.17872802279772518
29.568930474598183,-426.52289012347717,0.13295173665204357
5.832920095963221,-115.99860951824607,0.17343566531390578
1.3104779990454094,-24.608812013132113,0.20961423691680034
4.840312170208002,-134.21613094658656,0.23231104037300568
1.4987354534022042,-271.2484518985651,0.1389883064523165
29.48632262327887,18.978311195767933,0.20925152949222553
-17.614469713283377,30.654651949747404,0.20091512806058454
-12.688731207905528,-20.887604061288837,0.21630071100134535
0.9435895402025235,-165.99567135795596,0.1717743029084159
-8.549888941570684,-74.9049832210986,0.2301578458625671
-4.887309278458344,50.76115087392162,0.1511842218174333
20.553123963313165,365.4274650585593,0.27587097156774265
3.1854871609355646,-121.75694929486052,0.21319651279170354
5.569876707091956,-84.27433377225826,0.2692348134561315
37.46982714703238,-279.57735621148186,0.14527627607716467
-33.78545663755493,9.972815492345843,0.16807808618851003
-23.25239474088601,-135.54426068485873,0.21944123113336425
0.24965874488085762,376.5114189077727,0.08963499122407814
-9.527427944701197,-16.637366837254113,0.19433499676793523
27.202712940118445,177.14569797648755,0.1657346478229615
2.4133679527856864,-233.26674724328913,0.26267246275566103
-2.0257977510118588,117.58367450790222,0.22183812750775542
28.410178421411516,91.66646356561414,0.16445885615958916
-32.44030952644198,222.37150145593495,0.20564763827809682
4.505381491215714,-119.43648468685598,0.1527933290327042
42.28060073936395,-112.33272134681991,0.22093833214556152
25.46838043050462,-157.60825127139586,0.12766125839888276
6.443219251065729,120.88829971955042,0.10520805839249617
18.692142372409062,290.30329488409575,0.208499217315834
18.398384434090303,-127.92718614796803,0.13501756729201522
-0.7502405572105254,49.81469521859765,0.19392114297449423
2.663292536682904,171.9100053676955,0.1735543508198549
45.50530108286032,130.840759614325,0.17971233662352315
18.740681765237625,218.74976910990242,0.16225304198003185
28.973095420838497,395.70156310566443,0.24643735394125793
-5.325669384539104,166.76503389384166,0.1428831209402569
49.701594830361685,366.8371049018424,0.1742802781290246
-13.047202984920352,398.6575452393471,0.19946087395621098
-34.040255825652565,-222.9334436226691,0.2219297555450182
-50.33171188940453,-195.87679687343217,0.09387876528570989
3.2383476100154365,-224.86339672800537,0.19401022211182664
10.039158114619937,-165.03793295032358,0.19614354431730097
11.944665731180553,-314.00774368955433,0.23931222222894324
-9.794310913924274,-9.43346956749505,0.2933163417089507
-3.588678072863617,-236.00039891400792,0.2593394895778666
25.40076436226117,205.31864302825298,0.21657298706231512
-30.901104552188514,-240.62508210869478,0.151292365562247
8.671481303774545,-176.98264066159996,0.15138016596118326
-29.043814301700248,-9.997993279878902,0.2758264827460852
-27.91559988350183,-68.09204141989864,0.2215810325387923
-10.703741921393648,-20.799456348350663,0.26922204680860307
2.1818024437441568,-83.57686860371724,0.17736757376284734
-13.68148900547526,107.90583335238094,0.21766945813272714
-43.61093008237293,49.13681926692928,0.21656304259525255
12.463668121035738,119.78571154042599,0.17219395388946163
-16.205630515856242,-263.7727173575106,0.2243803129883057
-1.511078030875911,109.63269076456241,0.22563764144738488
-9.311234590639806,266.3165272963704,0.196183488005821
-17.00670899563296,382.3831131819054,0.236323560154213
12.933879641427808,-46.83883555163996,0.23664866528163223
-10.853301159655636,-509.9910689327179,0.2447914652615516
29.43695861356523,-389.8325827562339,0.17472311404606097
-19.5401590213747,-393.70271615992993,0.1761912630494195
-4.585241012726759,83.95412560079133,0.21734943096173268
-4.570396327289735,-92.13334573401923,0.13481077153726434
-8.225305981656314,101.01930751952395,0.25302538518632856
3.761176017770623,-42.179702159179236,0.1971564853939225
-22.140188580945566,451.9021722827358,0.20286457882265285
-2.397262328263241,100.82474636735539,0.17163074816264745
16.007905502416577,206.46657067482838,0.15998335417993914
33.337612831263684,-47.64066106040846,0.08353289063134234
-3.4286180864172486,52.39534239862792,0.2334690900124291
-1.9843811879452777,205.5091283545951,0.2531910268892475
-18.961105335575404,146.3836323782227,0.1883026208000052
-22.104534001232366,155.72690916190322,0.14403184020301704
-3.4161239212112466,335.1103068175417,0.1505727184632905
-18.902743528121277,159.2653425326909,0.20083514304653563
14.59145426847079,131.25136318559646,0.25215143672285745
11.468367280191512,52.042470055152975,0.1979813212767538
25.343951215082203,-47.41012085842663,0.23997314068069883
1.2253072450126599,-127.83669064233685,0.1969013899494614
-31.232640354953055,-306.802193416716,0.1511074008107591
7.710268542139485,-3.018960827238467,0.198074560134242
-16.682227169362434,-82.8144698113235,0.19832887951291342
-4.719496213434647,217.7490484394274,0.1887160249731084
25.723309570019484,-165.34069500979817,0.25078080645330453
-3.8597880025738496,-110.19540301809216,0.24930974784926974
37.665114004514095,-56.783813486867196,0.20903037030636015
-16.788928765558275,409.7035711571378,0.2030394171195849
-1.7340696606044523,-170.02451172178064,0.13123240225206662
8.329603315739348,227.54630080017293,0.2675356107425962
16.33548567221884,-161.12373206923377,0.19063700500917619
25.598167669049747,346.6535435738929,0.16610204887897378
-16.81529646438754,443.1152549454903,0.28554098201289857
-2.4729559757349535,110.57153020259123,0.1428570535831158
-3.9603039258156154,168.45540150201467,0.2532711975955596
-23.192596952107678,-209.74592302754377,0.23735681523315444
31.935248510868814,-59.889854265569795,0.2275873623718862
2.200709581892126,-227.96746309176586,0.09284585061793756
5.684770344325228,-75.95375282213371,0.22455334957680603
18.018165780814186,-339.75046265159835,0.1884523617953237
-27.416019829845688,-128.2407896256112,0.20783937147649167
-17.12628628512183,-186.6842661179977,0.14637293891244302
14.5984528308563,211.69956997913366,0.14661752686893514
10.567596438299802,-58.99599171069878,0.20977103536986275
33.80136022530464,-6.3498749330264435,0.2993293997127071
-4.80422588375547,39.197843359166505,0.24429120939966448
-11.136656796483113,137.01392564165073,0.26038826826739314
38.98256860632167,-46.92046721311197,0.19796171325288106
2.7463375799570744,-46.902494733659914,0.20801489088710293
-1.6245957386459273,-306.6203186805944,0.1500049994427855
-14.406445304382878,-317.19807754633916,0.239827419676873
-10.922939743312202,-1.1990930835840254,0.1284178044267404
-18.97606671113189,433.0368428908628,0.15099033698465636
5.945022025921683,-77.08665183790652,0.32102483999125503
32.767667820259625,331.8042806781298,0.1583431463787748
-27.62599572442388,-24.385399677062278,0.21763839611286454
12.295405527811702,-51.808748988394434,0.17062178555078947
29.720248414111865,-80.81589031310469,0.2502426330667603
-14.716470939933892,79.76180596053561,0.12705032885777667
6.10147693677793,-150.86015659683954,0.287191371599299
-6.769195625734628,-340.2848324453704,0.06983600869183967
10.720136371507127,176.88092193845765,0.22680105698759795
16.76417036536656,220.965794173396,0.16613335324740866
2.3050666723744966,-43.37381459212297,0.24033697323068376
1.1158227314865405,130.31896375539168,0.19155553593006971
38.440454786502855,225.20661147106114,0.11854919738769482
-16.00996408468469,215.40888376051956,0.2626675655766462
-15.372343277683758,139.83727319698295,0.20381415039713563
-21.579916593862755,10.842341825922803,0.23275268602058388
-20.521292798664355,79.27858229178531,0.19490662481307452
-11.033301533639987,317.1091541545342,0.12552800125968044
-8.329026889954639,-160.87740806049186,0.1915279496667718
17.243209041541206,-395.3031809795145,0.1534149529063611
8.178286255510626,-98.68252137846848,0.21516966390546427
-32.287521703509576,25.006147158376884,0.19244339013325412
13.398307712243456,11.995374575351752,0.13137914666401926
-21.724236548186195,313.6441032538689,0.23235471439454264
22.510757262964734,-53.19640947368809,0.16038796338123468
-20.086407333029754,26.346538210492405,0.18094702121280085
31.876181597338366,310.76556323071617,0.2678699988620617
2.724889999973134,413.5975097630686,0.21458956791441186
15.83574126265636,188.7884973847719,0.1343021558812848
26.501988329554,33.901273593692984,0.2278559530580171
3.450883876641877,-72.20602459540704,0.14308591417406
-18.476849427793958,204.15010698881528,0.189958465248008
-22.219557770529363,-147.10116473409624,0.21583491509070052
-3.5199986936374645,-120.58335310441967,0.12269611560833214
-6.97189460290219,151.65861091454963,0.11915673193992017
-2.349959341124209,-341.16413655746504,0.23499578375347369
11.324910808087337,-66.46262265518071,0.15063082837474812
32.49263459295467,-75.61188214776985,0.26014570914259566
-9.6241948968971,29.438829379513265,0.14689487674960017
-11.546378497096617,-14.064010345231475,0.2181900198118761
23.091314664057833,-201.03026748315247,0.1868354137468073
12.100084031161007,323.17566723997123,0.23379517505054884
24.477487839247157,-177.26978652708482,0.19669188030659301
40.59289211189443,230.73220148063527,0.20872432002082106
-11.971896944466513,-138.42352344525867,0.25259925030668645
2.1050745582785773,136.27120525438565,0.23681844817892223
17.638028413853675,267.262085391412,0.30056837602034414
2.034264894120264,8.90293994723239,0.11840203897280127
1.6918296052797654,-505.5720372768483,0.158558874785731
-43.37870202662608,-170.36567224739133,0.20000362693868687
-6.242713377149437,126.83116324016979,0.1617893251360369
21.42307557841303,191.67247169502525,0.16127626842948142
8.801554972955612,101.3565775676374,0.2258489067712866
12.989940208547972,164.0459696726527,0.2226914991876151
-4.078934428489714,113.82671067440701,0.1486077401172973
3.543020393954008,-0.7697993028481849,0.21225318251807496
3.2520367276303364,348.77807846867495,0.23457601829024138
-16.748532753579973,1.5038044153599808,0.22282646314170063
3.9435278006584813,249.10916877363198,0.22059052018368222
-30.078548342003756,-63.63892931021875,0.21403948691092206
39.591000998353195,-154.76826105035568,0.11037918683064013
-7.350694581419132,-220.43325438289608,0.16924237788474272
-43.632396228992164,157.05412637513575,0.17613607755941155
-6.5664008180557705,341.5980184430344,0.2071343178919403
13.570472247346896,-47.14225468777584,0.2425561734935884
-24.403198671828164,116.06467530059923,0.18183146176934747
-14.041114893441843,-33.46130363871717,0.17100988536103107
4.491173455651635,-73.43115068725112,0.2136793092242666
-0.2041598673076238,151.25263593558503,0.1499674326080201
14.336922554690087,-256.9335219476435,0.26827955798293596
28.260512989061244,120.71537083111845,0.21165566734451396
-3.50387135553352,-24.25126476950895,0.15596378162371127
-23.9444062048322,163.24071854821307,0.24716086667310172
18.041368688656615,-55.45481927043421,0.2295462446592879
34.97302309606795,-31.05625887409292,0.14008379104916074
4.226254665534168,-13.903246416645064,0.24969964739724712
-37.20643654787531,9.12213836317275,0.14809251843719112
20.22804426227124,251.5168998191025,0.2203603524673896
19.00798945799443,55.609844875443656,0.26989523062992604
45.83964810927966,71.3896511233799,0.08211342107092788
1.6667007892675676,-64.49597853658975,0.17422104447924203
10.893769364740926,-251.7045193088921,0.16056795238087218
47.36274720073817,228.1165284347879,0.2672155513728885
0.8352675913123304,-77.2756022533442,0.22318177415596654
41.38749296935164,162.79316064023737,0.14950093600011283
21.2591837288219,-237.3366217804608,0.22634687931161662
-0.4578704837897079,-200.50529965634598,0.1390142095307727
26.987280801175345,-87.00165304414385,0.20044831440340605
-16.501700462267813,66.98141482337344,0.1689768805883438
-4.4899168755019945,232.42831170868214,0.2894921985361191
38.980608602774026,41.04891728579567,0.2220810566773741
5.949881102823006,-85.9505138493441,0.23487839439085006
-11.734164982965298,-48.21185298466838,0.1353990857881328
-10.763584673204505,44.074593950047934,0.1858643100056936
-2.652983888152046,100.25570083750705,0.19503529265971128
-14.555629118658048,256.7434425333022,0.3095621120862784
-15.750567789295388,254.37029517250048,0.16769895985219932
69.0594707991521,-133.83826615482,0.20816837084024647
31.689653364765764,-291.97140599336564,0.2157079886617406
28.128054330607284,29.868251933577266,0.19329761570702664
27.597043921365522,98.66338374414224,0.24270454458392254
-13.129221265046041,81.91943158309994,0.17278058297295237
-20.32017399705406,-87.26456086959612,0.1994347227716975
-31.77352288957353,-95.78414866381767,0.18159590683644317
-14.88726524638192,-51.255599721329816,0.1698273897135666
-1.2868293343298514,-334.00191255955843,0.15536851097269552
-5.8690309837784405,11.829578174652436,0.2197562214329458
7.626704922794173,-119.57705124587834,0.20344918412045032
25.743169307530565,-181.7413491644353,0.12354203476353608
13.235745786401639,-311.5490627224981,0.21701566267581873
14.901890683761936,204.26610736690475,0.2034407811701146
-6.617310009746379,53.37883807501471,0.15722379075543527
-21.031611442625596,102.86454429319909,0.2690671016702132
18.990939395254987,-228.50696427923168,0.24118232036781925
23.91898158134744,184.06191916338986,0.25716156074883134
10.278509749160227,212.76335864817048,0.17454824740301736
-46.89460560127554,72.13913872373304,0.2532248951651438
25.85212470940742,402.54997339148406,0.24499102237623419
6.501703765985089,75.74234631241275,0.18656928351557034
-10.761226587183494,60.21258877538382,0.21744369946760092
-31.18477154385097,205.17060007312747,0.16181282195685406
15.677217437455797,-313.6867994864887,0.2302971375399607
8.401215336011301,67.00005467080867,0.21135600005185945
-4.9923850613175595,-263.359099883763,0.19069326098592784
-7.629747123483503,-150.44570052367473,0.2954728432753407
12.669951731456159,-159.30445808438157,0.22152235790823632
-2.1113039537557663,-368.9741416219766,0.19627586280730636
6.836634178760187,-63.175906149542605,0.21261684159423222
-10.8465944439328,-139.9993058115223,0.17044653553565026
12.526169437706962,-99.29620224979033,0.160430862406625
-26.314264038001532,-56.79125999086108,0.11257271750934894
12.282232200619575,-4.200780900975172,0.18977053999025506
-6.989417912026541,-159.1973603669178,0.33636223212524086
-15.40074950618282,-69.31564014738922,0.24268107606928427
14.827045306660569,-138.3357301087742,0.11810991294754924
24.424844493839682,113.0053966425612,0.2669772380168415
6.25881319802163,0.9974303908014367,0.14320581445510913
12.84335160101035,-139.6566185533479,0.26519213916604445
-13.23606695841097,-95.47337096290444,0.25096636482561724
3.750174914248117,-155.0744755171376,0.1826287165437634
-12.961066643932739,256.17594537564105,0.12200084703138167
1.4038872949358954,-74.82650990071525,0.2689355684888343
28.370061388928455,-289.2599873114871,0.20441479780789154
-22.881527047663237,302.4525458417593,0.2948684905213197
-20.5046025396667,-19.6429547353007,0.23333322097076853
22.282172001653144,218.3650900718317,0.13602314874105223
-3.3109193638251826,22.952637305470752,0.16331937704677543
1.0121984851639247,3.8993398306069254,0.31736532189162525
4.199600420645478,-137.84882130673722,0.19967293715997114
10.229732216458176,-154.36345072067172,0.2249401217379608
33.474562264551665,-86.0791806187853,0.18815338106027865
11.687605017465401,235.09184956027275,0.2538917679166123
4.341031223581169,-51.94546691965735,0.2547657264375891
-37.938023795860914,-106.7146793000743,0.23948171826390308
-3.158943551076065,2.7777876923903637,0.16468933806333844
-1.3482967506597054,-240.50349591746874,0.2188455071680757
-9.747803091721934,-230.3944202997319,0.20667962058850267
0.9452012418113437,181.98335275219003,0.2504854580871628
-5.8585853574464855,254.87601337636048,0.274026586186094
5.08312432614721,-14.131817520532683,0.23845179639241926
-32.269803122416356,-28.81641799917721,0.1954087935383106
33.3896435391716,10.30605215122986,0.19519888727308418
-8.421139868258855,-280.2421867863321,0.24116282149554186
9.946867504830463,91.866891973132,0.24397154135310484
1.034983906375341,94.30558671905466,0.2482270161718457
6.629833775498301,-114.92635524038425,0.18526578876719363
-11.31022055687948,296.5177542561628,0.17259795961750674
-27.260435848863686,282.17004237947106,0.2927898323660783
11.5428769962765,447.19616241806455,0.3301065134411504
3.1482715526987723,158.47487342692907,0.19627086951750955
17.46234385853821,0.902179501086429,0.20949818582379676
44.40144107754862,-120.35629892683899,0.17876135204039553
-12.147847823391302,197.891038669777,0.18724664616181874
3.9801070318000296,190.6663150494898,0.1637497724390955
-6.022603257633472,219.53768041736487,0.21716239825158645
2.163948080033834,2.53351027422092,0.2028355826176347
6.676395299812086,-215.9581416383923,0.18411540203099386
-2.2098689564367695,-52.70785759955846,0.23434662492758518
-19.830941154657086,4.724438407140565,0.27857436548141495
-26.67484098288631,-159.41254245934402,0.17494213566445893
-55.106103169917404,346.6132805346008,0.26708523116377453
-24.984549177896007,-51.68848134478776,0.08461474855059377
-3.8451687069746967,413.85686214418655,0.1614501055328531
16.507480890514948,-120.94222713808432,0.2131861393368131
29.80020480494979,-392.2045337399563,0.24101739028545502
15.245545868495306,152.320842579639,0.1662445228227803
-4.229597735024284,59.27458481682605,0.23480572788915807
-13.147227220671887,245.57919349298749,0.23098472167054296
-16.34296033732825,-299.94872894204605,0.1635009749763473
-24.507310966733513,-193.2641102072495,0.24036255583845845
22.883677974365302,-43.64787352554739,0.23175654155769154
9.02710855105492,114.01882093494837,0.1750259391207941
23.10564083283062,-149.97875411420924,0.2114435349721619
12.544232963635164,-184.42648730481926,0.1949837976157267
-4.8764460543560535,37.311279482076145,0.24233691603576243
-22.648705832833777,-22.89933712578194,0.12546175930591108
-6.779802954077275,-121.9114593260215,0.18040807441890072
-1.7206568520593186,-14.526487654247063,0.18930666493210008
7.691466962798076,-139.26052901310064,0.10354066979457979
22.621566905669802,113.8368642257895,0.12528638164176872
3.7098157204459072,70.08584064294618,0.31106152378344787
-15.608893986674877,-49.433186512495425,0.15409493617386263
9.22618849990743,142.72527799919874,0.14713566660771005
-24.386689039018275,-59.279902047909815,0.14289227164292187
-42.68879011972048,-95.27938844441725,0.2166178801541235
-21.107836199657303,124.15464190399348,0.15858372701280432
-25.49943709561196,-293.19828458728415,0.2705928069695017
26.84490573857861,127.71905980864,0.16723666612303853
-19.362319273644335,8.95597799522375,0.21971225034438324
1.6279517631511629,-240.5489735361674,0.23118329651447983
-34.682293260086034,-127.8895497773786,0.2121596862592527
-4.760032910371631,405.6292530229467,0.1912683809234834
30.602974148530585,-254.9315630308036,0.17129106284153783
15.5978159450828,-298.0382126994693,0.14523386112280506
-2.0856538371734867,65.2553791328604,0.1362905215736092
-16.0096510503725,24.81824560273886,0.24552320795902177
7.094137082864753,-137.15380550657008,0.17120121976511424
28.030212621713375,-78.4415539726434,0.2297284197970318
2.0043508830481227,45.66283332536244,0.16949461316733744
25.557551260258997,-259.3610920293405,0.2678926967304349
6.522611833000029,-241.22586507361686,0.1851952246561148
1.5399391680968422,50.53796011177649,0.22169952861570294
5.893521009439562,-273.06626787183694,0.17185988543898023
13.637810681180099,138.68038775402013,0.23117668903147434
-2.3589042482435523,-225.47068520437762,0.20086174300888182
1.8499645342471462,388.47643846846694,0.1315688698511025
-1.2012682992941084,87.85340248307425,0.2315695283188393
7.09461071229579,-304.7504197424459,0.12647437208928372
6.474899484241718,110.34287398981833,0.23389344126263495
29.86345734651854,-298.13597770187323,0.19411914542159855
11.723021581927862,367.64758361565555,0.15015535672886984
10.945489590504456,-39.888158052130414,0.13295825682008644
20.47956101414693,-339.50953142885294,0.2982143167718132
13.91258473919928,12.309469369289602,0.19883260030782074
-27.177089935378014,111.01421574693835,0.25182813461937026
1.0322532079608306,-59.86191838076256,0.18046051633049653
-25.569463734082134,26.94610884312491,0.20884530803378173
-1.4639077167743295,194.65434608799285,0.06778022088023034
-9.35380617910447,-46.77413258832425,0.14035612715577866
12.186073280665797,-129.5336074555356,0.17285298470307875
-29.617889501141303,-73.97942702158903,0.20647988967429276
-18.080668804509447,196.92799833519373,0.23028703613946308
-4.27560816885168,122.70074392659622,0.1791194811329425
11.154431052704014,173.60267396615268,0.2355721555556124
13.40030164660284,48.34604807186271,0.1697416246966759
6.835481021851832,344.2992015955624,0.2447958876041041
35.79268602709809,38.15874047772719,0.19269758248172103
5.311117030535609,94.5205930832189,0.17067895203516215
28.14186257711551,147.36706502728217,0.21332246559354104
-31.80829648182076,587.3850764994191,0.29073324477795853
10.660163572238377,-30.694533143555336,0.16022673109997
8.940197624799405,155.91744168401766,0.24778908925174023
-42.28488669672595,-137.71110434686284,0.2517401433970463
13.585818499181045,56.15172172469888,0.20455722130238077
-18.049236301192252,40.160495127775704,0.23567011162413512
31.395473836805845,-138.3544720353309,0.24608595781925557
-23.205675348371887,147.43966699165165,0.20086281609042103
-2.678327406539929,67.06263794403691,0.2759292213411875
9.96256353192811,332.2253110943713,0.1975325722349172
43.38514827936797,50.19670488183417,0.31181176623292906
-19.351535933691434,-167.5652672945102,0.25323909199694306
-6.792834039736543,62.26412285254216,0.19383407920968257
-29.52787512672344,71.71560023903629,0.1372017793239249
-9.020529105370333,-137.14093063870584,0.03451589534821309
-19.039943483402777,92.90866792314925,0.10274977078504226
28.433286011510877,223.05810682086678,0.22738516190732155
18.68764975806762,-427.1996968432265,0.1287650105311739
-10.55539003717207,194.1749921677099,0.19778957522585208
23.10480511057337,140.9201346329462,0.18349685302159602
5.962667925244003,-68.41295909867378,0.17077951660097612
15.953875331201086,37.58053082331039,0.2648294474673535
-23.907977751637233,-95.98585230225574,0.06699599583027616
27.643540288696833,-313.0801003148038,0.24111222200017407
0.03862798661683629,64.2027366876008,0.16879840186710698
3.016171611369466,-104.4049745490175,0.1739970065676576
20.614305948641594,-78.81700565607555,0.19253784736101207
32.71553981564878,185.94488251755067,0.22959530076858764
8.805157029615152,182.27592038730398,0.18050286038216776
-32.31307235935637,584.9560796671384,0.2102665890048238
-17.438012834826527,33.676007929882566,0.22802049569796176
-20.203546759275955,-52.84352270442011,0.18773012893719443
24.240120485125356,272.9877426242957,0.24334120769423073
26.556121125194135,342.969395088496,0.1634845770384151
10.591626835018094,295.3891274704494,0.22267910117163067
16.801934820223895,-7.409232547172529,0.13773471286786168
19.220080778508148,418.0917671011642,0.23206397417992297
-11.140110416278548,-118.7592120942823,0.15149579558247267
7.881174713872867,-52.039937746791246,0.18614676885075537
-40.39168836353302,19.615556648558304,0.18840889832059413
-13.730791761903156,-303.76077886773527,0.16534757001077877
6.407446512092419,110.54214443884163,0.17582317491413957
37.29599563389116,40.97558647144498,0.15582112618758534
-9.212104670212662,111.91780563419628,0.17516964119761858
-31.499222629682833,64.26900236739445,0.12801294297481608
15.19750872004764,-310.9385493537618,0.18836813738660624
-10.393702575451504,-486.60102661422053,0.1918175121584299
8.6829908882982,-434.4180871176484,0.20646049945757927
-2.7714783741701083,-256.6080692993868,0.17333120257338658
3.588805985082698,-272.5208350491618,0.11169033221423287
26.02176283329365,-148.85714049212046,0.2057251293865132
32.43920073197179,442.44123435505804,0.16002209800847508
11.587707524591671,-73.11096628785548,0.1578484925695172
-12.379806823281474,-93.34744288925292,0.1935322419608321
18.88525555793119,-292.2873367306007,0.1637240671030112
0.008875838826476946,107.2350422090086,0.16967129057663005
-17.852497391475318,100.08613218662752,0.12004796811258828
-0.3175039043852014,221.00706613833546,0.2304012065240687
-27.20231291782727,93.03847929524768,0.1542609361205667
-58.108018119335384,-98.93659385525403,0.15266536345722392
0.1805893048629315,-295.8771047271997,0.14543643265808429
-19.604068644272218,167.50199546713523,0.28047968501037407
28.77278278001836,-188.82491002963215,0.1511271391825983
35.55658625659917,-112.5014237591827,0.2179879174315664
-5.2853575629708525,392.9181050955651,0.16995898572547424
50.38469798004474,7.00457208016031,0.22457459349992165
16.45877302918809,473.58420399754203,0.2546536516681923
-38.43303909850513,119.08892567721972,0.25811910275012323
-28.979287566326665,-321.5751065807268,0.2276413475128992
-0.1758515981884639,-51.231456604883995,0.16717189937402266
-4.425657120927879,227.72362185238458,0.20307034415999092
-14.038118655602982,-340.4297034986539,0.24401325937161208
18.89601996833234,-167.14583180849522,0.15585107692438752
9.764411523620218,20.116117337741805,0.19009905349420347
7.842339496266271,84.61794865192532,0.2675338643539808
-2.0815643464591713,-164.07171852226097,0.14845169185674567
5.0993956205812925,223.4845561702611,0.2753539949409691
-29.671400865483495,53.268858429573605,0.18094268607819625
6.5909509668304045,-29.915932229171066,0.2610856054059226
-6.073135041998269,-319.1220102576081,0.19346248526637955
33.00252784835106,-27.998695312093908,0.23897354145033825
1.6332802415982837,-43.81792652455786,0.18410851628734196
4.456784051954859,189.16098716722246,0.20636149732330322
-8.998939721512695,-148.51526969451086,0.21964782147135387
-23.187810027610205,-92.35014918383216,0.1380309593057312
-1.5404389499726665,101.0297471513319,0.19233697778080278
-11.722308382877927,590.3707805436229,0.2829310131619456
-23.270836624571523,-291.6873896554434,0.1567775778664801
24.65975685608475,-282.70140320584306,0.22224085488680348
2.9833952444499494,82.21200298436825,0.15316113655233554
-9.713555035144578,-11.880671705560417,0.2199851738460695
-6.1561855936452705,-53.685305402816454,0.26082853793019706
2.7460406354412426,180.61174142676552,0.1869701566595954
-40.17858600462589,-171.91954967059579,0.20321910527004022
45.63860669655065,105.15860728738875,0.22612191907536017
7.820007429716651,-52.36466080032407,0.15028740882662026
-11.165419235626588,-80.47998965918299,0.1637405501153796
-6.231184544786219,117.09383543033498,0.11141390960459993
16.26641502898601,-297.6554727133474,0.18781195962062786
-13.904562666133211,198.3791279574732,0.19135550238804738
34.20901418427946,-70.63175063588902,0.16899776964272648
-11.60321181129559,3.6517625430026097,0.22387446911522224
-29.220968820765844,-68.791660050365,0.1831855664498575
-15.144007556217653,-234.61274182784933,0.1844217005660739
-42.37974331598001,148.38507174987282,0.19065700764527876
8.115959381200055,208.08571416026075,0.28536136396798156
18.598004470307345,-275.5893817197161,0.24012170599959304
-7.26840444566046,-247.6315653652374,0.20067045622920354
7.845704264711632,274.92079154671774,0.15047085212926126
-3.527036055615995,-66.4011351451849,0.21880465279030228
-15.742252599419839,126.01193683049576,0.2388330827839468
2.0511513771227827,-43.959374751948516,0.23122428286171914
22.100309696310223,-75.49725212606026,0.2682333983372053
-13.475271249805454,46.71311239684355,0.2312271217384479
-15.688792001404154,169.73484205713794,0.25898464953316935
4.12314128422663,48.77573802060929,0.17912810993545975
1.0939303064731345,140.54269306547127,0.1733038576340203
7.943384958653441,9.4393510459861,0.2021017208937845
-15.192423667691672,-308.4784160160941,0.15314381478641825
-1.9571079998432421,193.12464504559836,0.24837200991251596
10.67194959890925,-177.36399316925613,0.274723245210163
-3.3278946886236165,227.73999436845313,0.15421456939921707
14.064316542860727,226.394448064159,0.19798731904504888
18.825756594296838,119.2143942343487,0.22840649587574002
-7.377840103076223,313.12341593903716,0.15527547603086042
1.4788133260812102,-302.2089755013786,0.16835176230995175
-21.143861402692078,-174.35109246087416,0.1892777630673831
3.2775935374929412,-88.93908258980471,0.1444284038079218
-1.7601171217233482,6.156758362462717,0.17487033288854167
-38.19461153814857,-218.96564915195395,0.11771533019605739
-18.299647026721964,-161.50496879691346,0.1937014894810365
20.78191786147579,-61.86509479372967,0.23290407248949915
-28.474887800307258,-335.6464875663497,0.1957913083186239
-12.766671612489581,278.3209738551888,0.20555238749661958
1.4678220406924964,120.10828108949536,0.24655227037642163
11.130970916455272,-231.20383233123266,0.21275029598915124
10.344187035148895,12.736073161249198,0.17510798509095438
3.386972079291697,-256.45234197172516,0.23730549212771598
-3.8713403762408745,276.42305390494226,0.2068474199789389
-27.39574131691272,-260.7840482305353,0.17660913357872648
-39.55301300941607,63.49699521491262,0.1828882683486332
-2.4379641634131515,48.78031040182466,0.20659849155860702
4.66926683591656,-209.10823161137935,0.20952404976580005
-39.165734729771145,-255.76982100860968,0.21897070103636618
-29.392637470701874,250.04410594683705,0.23332491629793772
5.7658537255454085,145.22804581252248,0.20707519743350397
-12.826087656767635,29.131070184000045,0.1813151438637278
-9.114204072215415,-130.42105447619105,0.1694531409602642
-46.82818718678476,-268.4516169363488,0.21970106759372776
12.60535984799435,15.04465275312834,0.202211672643684
-21.557932557370435,120.5290790355011,0.21832343407121652
25.595910322028676,412.14557512567484,0.24803422120207758
7.382226575943775,14.130089576942053,0.23889674584782916
-2.2114217903135818,363.84880590600795,0.22985306707410938
29.604834149872925,33.35669854153347,0.16810849100333017
-9.624411633876251,-16.59805899181016,0.20905363803911872
42.16614985088512,-160.74733031085714,0.1613788758395412
4.229252388921562,78.98015481933064,0.20012099639247471
29.58020747844717,8.455743164074548,0.28280461601521617
-38.397437691179945,66.18549497241808,0.28751300637820937
56.862210118119016,144.4973761894518,0.23571786466317723
-22.124738036867168,438.55551167626203,0.17418848331239598
2.224969410709997,277.85433676450964,0.20572137905953997
17.065918987370768,-128.0432212711552,0.22807832395244307
39.9296126494876,143.97389899163497,0.16651740801577963
3.75182785246548,35.04410729387066,0.15304040936791943
-33.46323514627197,-25.350180899837838,0.1748710725046486
-14.690397436673008,99.6631016423859,0.20295494791508198
-25.26208175502405,70.0549304845094,0.16391735244505054
-5.060940684113119,-233.41951437916677,0.24247158732586938
20.337183137839247,-350.2434789505564,0.18034637806977577
58.457069434634725,0.7138625731593284,0.19979443148881548
23.309094925610697,25.667980255327592,0.2702298196491501
15.954815423705995,118.04235362088545,0.1563962805153175
23.698532886693762,83.39461686125337,0.2155964429899937
-10.375023950800141,-169.1473723686,0.18216598848879922
1.5961637969526954,-78.44619730172026,0.1981962642353059
-15.447936078153043,-7.397950336202003,0.20384032389338747
18.376041065097418,133.7207556470881,0.1455131504266959
-2.1627296569255368,-151.6295458614011,0.2064507391973468
46.97490778081131,50.97085300116814,0.11435719313605353
-1.9888187500236478,299.2952232799215,0.19794290810807785
-0.420447492365262,320.40726022455,0.10544458125792505
-5.747669256720123,176.40883243592833,0.23712809840360255
27.06686733846514,-73.9827093667002,0.17365879727662786
-10.535918944411915,229.85587522806378,0.23439889370616518
17.782753103817235,-270.2048579971896,0.11803036043132774
-11.732029106300072,2.5209925183615702,0.2412467485891
7.030252298735146,72.76213085403552,0.22593066148875324
13.259608231424746,-12.699601527219038,0.22324552372606604
10.572253999418756,-227.052512598692,0.2821091099346691
16.138761461875745,83.31151375604937,0.24013510979823277
4.800070032111109,-179.52648932610282,0.1260274789617522
39.51552129516718,-277.08536644516715,0.29494123657210636
-33.63562853302592,171.96761633833856,0.15834767610589476
7.685552595405486,-124.171765915169,0.12538923412909705
17.202698898078662,188.35475022332704,0.22903805930644566
10.831627559200932,-48.931639246747004,0.2266283432169615
20.954314963620053,-224.72847998165565,0.09136824817659112
5.953943183507104,226.83455940643736,0.22704686111750783
-3.123542698658814,-509.9582690405923,0.14909478753196356
8.779651202005018,162.21795442610164,0.18892427686573873
10.950399263674033,183.26297400739705,0.17959869645290322
-53.92341150792083,171.70672175755212,0.22820886509270744
-10.572759668420414,-383.59498651012876,0.2169959026942035
-2.169783618587709,-13.038762182411002,0.21436807921265172
-23.090662506204453,321.3144531152932,0.18629050080992482
-22.9611901195861,-100.27469450471598,0.16710114268010096
-13.061750174786056,-299.4578242596492,0.23545744100008056
5.3173193165290735,232.0835380792658,0.19326229959189445
-37.399220707482826,-197.1409215330896,0.2620415731442713
8.793924497596379,-137.20630140318917,0.2088855248291821
-10.929579363757028,-225.79447300616832,0.13836723031468623
30.584999607233257,130.4593785795839,0.2382013054598598
11.407585929835463,-132.79397123842344,0.17726310339938695
-4.711884236184266,420.26467616664337,0.13765863866485933
-6.114027000130495,-283.0581004846875,0.2154385544259117
-16.42081867432469,315.2861235324081,0.16822401840828277
-9.403161333406523,-253.0459231037153,0.16480246640248156
17.209627953163256,257.568961149616,0.2041772082775183
1.2933956325459584,-266.3772342810214,0.20692927703691216
-37.140589058716515,95.59822954296907,0.16784667980302032
-7.646388188462254,198.5406202254364,0.26207823219222215
-7.750807481472695,-46.69391374579981,0.3147450681392439
-8.025096704371244,-9.252337955530395,0.21121449557592212
11.031233226451391,-354.1117354207043,0.18739717773964545
-4.956777269687805,-71.32095094350434,0.22426098821489032
0.6186308839689901,148.2088133827796,0.2215390824674158
22.12286381406271,-201.830670515089,0.18014010557062074
3.457645233063866,-53.222414246820726,0.2382923480340808
13.40992484331553,-244.0433105531092,0.14054877933793558
-15.546415021207277,46.19192623847266,0.17371508202955677
-36.295733219896995,-187.8268232603125,0.18632469958439632
15.225000632215547,-169.58114187181147,0.21031829335595253
-31.286230345848868,78.98537873420743,0.21615482033896158
-6.828110498883913,-29.057406861400924,0.30794757279235313
13.008919367722708,529.1978995158033,0.206250079417503
21.458508856655747,74.10167934001119,0.19671649305180278
-16.556017890092285,130.37842524207187,0.18094709231961917
6.6931044981314445,-20.804004877995304,0.155969627943886
-9.097532797260216,-170.84169555780727,0.2929891059960018
-12.803053487388903,95.52692229790773,0.06652766642438818
-1.1208503458206118,19.619526066933986,0.19011864936351403
9.611748196069458,3.142268149051147,0.22170735384523568
-8.335751911159571,68.5592568340465,0.2572279297710915
7.651919311935398,-388.8359687931641,0.17657438160994662
7.367112756971527,7.6695208664711165,0.19999731751380523
47.865146002640124,33.5383865174575,0.2053371714196732
44.55552137515622,279.5920051671399,0.17623435350193944
18.560275379575742,279.01357625407013,0.1457872363910652
-13.494112456259362,213.82601148792114,0.2444790209778581
43.402008401538595,39.18073113609679,0.1050009987331064
16.530139534655277,85.092301411757,0.1794054286478372
18.378421543658266,84.19637200975713,0.23103407092017492
-10.86633017050221,-78.49488134531546,0.20749870782658603
-16.356564520947185,112.30586796557851,0.12224144586838043
-24.345027502124278,-119.16945702581498,0.1863330138228645
41.61482470366312,-157.61610596311786,0.1258742193960487
-0.9389786445319477,226.90847574411407,0.15402050648322244
-2.608310825413616,-282.2241768616232,0.2413018797168978
14.149518986478721,-160.70317017651792,0.17267852014490886
15.389613431522788,165.72277489513746,0.17125429770418132
-39.61981142679063,-136.29888751030632,0.2267955072584516
-4.7242200296374985,117.89414698828244,0.2101236491950965
2.8942639372631622,7.189590703404139,0.2779230085478006
11.519877113177966,-400.5448199244622,0.1377187232796064
-28.88859097808369,5.282047602199923,0.19414149763629782
-11.997334344274941,-25.53608361059413,0.1741677634481706
-26.33526170578501,-81.80100624052807,0.2216413131012386
23.86041619619974,-48.728999404217674,0.2439160317658955
-15.254024339391702,-250.4000042850242,0.1626839634624077
21.860331646376427,-87.91492792050086,0.17241257695958517
-9.404606717941675,294.00967553745454,0.20750506179905048
46.42961133729683,46.78725188974915,0.1924871907218291
-7.112772130999787,-27.443148210504724,0.21613684893427104
2.9831323783532864,349.5484883329928,0.27250076972883025
-13.439081630278547,139.70183495957502,0.1512528837620164
-15.252908939023248,59.92307323343358,0.32491107377288014
23.404819812667064,230.02495691714907,0.1973111881316442
-12.717159613026642,-213.43715943849512,0.24134687717957534
5.3003526089742365,440.45357682090975,0.23159410917331588
22.351822879615085,11.724893737188061,0.20370425194312747
-1.0669136742540442,-0.6393783903401776,0.14181526120730475
21.788556350716057,27.44147796089071,0.21817137958884078
5.5199953717048365,-3.9535012767718705,0.1838431330135109
16.06044734153751,-397.2178306390678,0.1779040610018841
-15.030220430325148,144.88358721511622,0.25638561867617643
-0.6483618413015803,-43.978412555163374,0.21636687922124356
-4.043790051066977,155.93630879090173,0.2217260871512272
-0.8916893808893598,49.01852197478173,0.1541337297939381
-4.804150079993061,273.4534577592517,0.11275530256639728
11.661866016482813,213.60180673628983,0.24867919515475598
5.506593696231706,377.07594994792305,0.24560735543452433
12.040452951797306,-49.32356610887932,0.20448891006176273
-20.752914651991713,-80.56490452556243,0.23681383471897144
-22.345653302292522,-89.17681736191564,0.19045094710096638
4.643877646649653,147.3120010968362,0.14694798661022251
-5.126938912433429,17.58611260574555,0.24643044110585233
-0.347616341024934,-506.75626973878565,0.15146976246805677
-10.530812873912353,-258.2214388558858,0.23243530391725697
20.155052727502113,-49.9237308370955,0.1688415263065948
-23.424781126840397,130.4705472046913,0.23131402969671894
4.99965897954952,138.61230678702879,0.20985184823774827
18.322109255393258,9.743010611643141,0.21604108445282932
0.6609330720707862,-1.9838500910297985,0.17466295139220928
-35.27106559722813,-39.27780524109551,0.18567349809261266
-7.71377601674155,163.30069145022716,0.1570170249693391
18.114844970542293,251.06009081410267,0.19181564749274196
8.961605710072426,-76.00002436038316,0.26848540848040126
-10.436580777687697,24.272812956880124,0.19922022896471034
-11.530978500015689,175.6787781069421,0.21501233876408313
18.652778503213142,-24.66704026504194,0.23568500416789975
-27.33940001445291,-96.37036573246378,0.21485169500318038
-3.778335601143754,-75.7799531853019,0.15124377752612767
-24.7016715958266,1.8664266610270188,0.1854400552110744
11.4119631631035,37.67257623699927,0.19559715656764554
12.54257432067935,107.07274222986305,0.13394575865466868
12.313321970580498,274.44301156808126,0.20969078320137458
-8.64128826554531,-101.3041720522986,0.17000651332438485
-31.565306224597236,39.857576134188335,0.2104519705415512
-10.138896330439128,-178.3308944820845,0.2839139826151086
26.1225054351151,86.83314201858943,0.18373816998839074
-26.67948873685653,-43.91962557189279,0.18894541565528086
-9.02952692889365,-231.3572165850715,0.14872189804561756
-27.363597946699816,-375.58393507734235,0.25531846151947213
-6.156058168597958,45.88421438424619,0.20169351565084165
-8.224239507894476,31.389197648470958,0.1996795616122995
27.44020398340534,-213.84484104078066,0.20910152430933165
0.38546255368585836,217.1088988035721,0.24732704945002854
-10.577303487746386,-120.24260584723632,0.1139989659414572
0.40790464462952014,-26.450301277108906,0.1691723974952366
43.07369869546995,155.10595639090593,0.22590921889501342
8.969290772018262,152.26422006768843,0.07222697934642616
18.540442447482036,-151.68312737437486,0.2384668277837076
4.897469092046402,39.002039384831335,0.1377359253238037
48.35983400597242,577.6067827533274,0.14650671380319083
-41.956654631919925,189.22586697105493,0.17543256033745633
-7.426664540985213,175.42755569804024,0.19495818916345656
-60.65123770952744,12.181379277173374,0.338023807065955
18.57906427040584,-236.47481149291858,0.18012318122636523
0.621585099757308,33.076417460147674,0.15948473005313385
21.65548247026303,-3.292500978733195,0.16679914950821584
17.88898671746581,-142.5679648608279,0.2774657464646706
17.01425953248327,138.37995653943895,0.2631879454405338
24.308705531605874,-137.270322517537,0.2587491946625336
-48.703429921506576,-2.232382874504567,0.12329062931664608
13.626599934051526,-42.18585412477752,0.25478289069787924
10.191666336893242,-8.94585045507494,0.1890968903151445
14.711718145122566,316.8039258999512,0.2951104351295604
16.49780575167508,-73.78908596640305,0.3008791659166623
1.6415076504783808,88.69637289278349,0.1969188651391971
5.50572664570508,-29.703846501146998,0.21335692726361863
5.559140087532964,167.67193909058346,0.21434842603053625
23.183196889660643,42.36006647005995,0.1939595357878781
2.106506380721578,-34.327831243828975,0.237539253323297
-32.37783990904446,-131.14154756208163,0.12871230085220706
-1.4698389439182034,-428.7185437286469,0.11895699540246672
-12.518995743416362,277.9127349228061,0.23194059213536605
3.1780107031412834,7.310485477500508,0.26639164190736625
4.067433754442533,-45.82817196294439,0.1679686045824483
21.446379178889824,73.50047571788618,0.21546796531185106
21.84991926662001,-132.2374932814359,0.2226838067186974
-10.354115506309867,-120.57804375520827,0.10402554368949629
-3.0445586270280103,-84.45337370926735,0.18439515305827273
18.63723401519038,-168.67784838090583,0.21427563070904904
-19.705860541733216,365.98365708257904,0.17716793137494902
-12.89260137850583,-59.080725912843135,0.1908156308560354
1.1576418944032787,151.6373008419298,0.29066687303558986
8.777963238179268,-96.0070635716768,0.22775488724993487
6.2288553249699685,263.68665098980824,0.24620496721974766
7.428877153194023,-320.4143081470097,0.21081322052058935
-24.01731080464408,-71.74054265888789,0.24818896702356524
-10.79275143829883,-106.7874911233031,0.1571880681277094
20.632715551582862,-73.46851143198461,0.15521542516102252
