-18.78427829863846,6.866650478894374,815.0
-18.805768483916925,6.80757458492501,1067.0
-18.827072878108165,6.748431435704441,735.0
-18.848191270735985,6.6892216155358355,153.0
-18.86912345316179,6.629945709381014,315.0
-18.88986921858664,6.570604302854716,1317.0
-18.910428362053302,6.511197982218789,1782.0
-18.93080068044827,6.451727334376375,1520.0
-18.950985972503766,6.392192946866166,308.0
-18.970984038799735,6.332595407856536,1093.0
-18.99079468176582,6.272935306139788,166.0
-19.010417705683295,6.213213231126311,1251.0
-19.02985291668703,6.153429772838731,143.0
-19.049100122767367,6.093585521906146,1280.0
-19.06815913377206,6.033681069558216,1523.0
-19.08702976140811,5.973717007619385,1834.0
-19.105711819243652,5.91369392850301,237.0
-19.124205122709807,5.853612425205479,1634.0
-19.14250948910247,5.793473091300409,465.0
-19.16062473758414,5.7332765209327485,397.0
-19.17855068918571,5.673023308812891,1338.0
-19.19628716680821,5.612714050210852,1348.0
-19.2138339952246,5.552349340950322,1414.0
-19.231191001081445,5.491929777402843,1350.0
-19.24835801290067,5.431455956481886,1315.0
-19.265334861081243,5.370928475636934,1801.0
-19.282121377900847,5.310347932847632,844.0
-19.29871739751754,5.249714926617816,178.0
-19.31512275597138,5.1890300559696625,1678.0
-19.331337291186074,5.128293920437734,1184.0
-19.347360842970556,5.067507120063044,1524.0
-19.363193253020572,5.00667025538717,1700.0
-19.378834364920245,4.9457839274463,735.0
-19.394284024143637,4.8848487377652665,1017.0
-19.409542078056244,4.823865288351666,682.0
-19.424608375916538,4.762834181689839,272.0
-19.439482768877426,4.701756020734981,73.0
-19.45416510998774,4.640631408907162,1170.0
-19.46865525419369,4.579460950085331,1497.0
-19.482953058340275,4.5182452486014215,969.0
-19.497058381172728,4.456984909234302,831.0
-19.510971083337886,4.395680537203867,513.0
-19.524691027385575,4.33433273816503,1105.0
-19.538218077769983,4.272942118201716,1390.0
-19.551552100850973,4.211509283820931,47.0
-19.56469296489542,4.150034841946704,1575.0
-19.577640540078512,4.08851939991415,1296.0
-19.59039469848502,4.026963565463441,1186.0
-19.60295531411058,3.9653679467337843,214.0
-19.61532226286293,3.9037331522574563,1196.0
-19.627495422563122,3.842059790953771,685.0
-19.639474672946754,3.7803484721230363,973.0
-19.65125989566514,3.7185998054405944,374.0
-19.662850974286496,3.6568144009507315,1620.0
-19.674247794297056,3.5949928690607074,909.0
-19.685450243102252,3.5331358205347048,1293.0
-19.69645821002779,3.4712438664877636,1937.0
-19.707271586320747,3.4093176183798066,655.0
-19.71789026515067,3.3473576880095317,239.0
-19.728314141610596,3.2853646875084226,561.0
-19.738543112718126,3.2233392293346803,436.0
-19.748577077416407,3.1612819262671445,1753.0
-19.758415936575155,3.0991933913992904,1802.0
-19.76805959299162,3.0370742381331484,1181.0
-19.77750795139156,2.974925080173216,620.0
-19.786760918430172,2.9127465315204555,1487.0
-19.795818402693012,2.85053920646616,1139.0
-19.804680314696906,2.7883037195859433,849.0
-19.813346566890836,2.7260406857336443,1109.0
-19.82181707365679,2.663750720035225,592.0
-19.830091751310622,2.6014344378827534,212.0
-19.83817051810288,2.5390924549282574,649.0
-19.846053294219605,2.4767253870777,1085.0
-19.853740001783112,2.4143338504848706,647.0
-19.861230564852786,2.35191846154527,1773.0
-19.86852490942581,2.289479836890074,870.0
-19.875622963437895,2.2270185933800155,360.0
-19.88252465676401,2.164535348099264,661.0
-19.889229921219062,2.1020307183493876,62.0
-19.895738690558566,2.039505321643189,1673.0
-19.902050900479313,1.9769597756986632,976.0
-19.908166488619994,1.9143946984328686,1701.0
-19.914085394561816,1.8518107079557964,978.0
-19.91980755982911,1.789208422564326,490.0
-19.92533292788989,1.726588460736046,1787.0
-19.93066144415644,1.6639514411232041,1325.0
-19.935793055985815,1.6012979825465712,874.0
-19.940727712680403,1.5386287039892994,527.0
-19.94546536548839,1.4759442245908598,1660.0
-19.950005967604262,1.4132451636409014,375.0
-19.95434947416926,1.350532140573103,424.0
-19.95849584227183,1.2878057749591185,915.0
-19.96244503094804,1.225066686502383,82.0
-19.966197001181982,1.1623154950320531,1138.0
-19.96975171590617,1.0995528204968572,285.0
-19.973109140001892,1.0367792829589437,737.0
-19.97626924029957,0.9739955025878166,795.0
-19.979231985579073,0.9112020996541392,1350.0
-19.98199734657004,0.8483996945236666,1112.0
-19.984565295952162,0.7855889076510908,1524.0
-19.986935808355454,0.7227703595738849,556.0
-19.989108860360496,0.6599446709062247,994.0
-19.99108443049868,0.5971124623328316,342.0
-19.992862499252418,0.5342743546028134,931.0
-19.994443049055327,0.47143096852359406,1942.0
-19.9958260642924,0.4085829249547096,1133.0
-19.99701153130019,0.34573084480173577,533.0
-19.99799943836689,0.2828753490101279,730.0
-19.998789775732504,0.2200170585590593,384.0
-19.99938253558892,0.15715659445534866,1768.0
-19.999777712079982,0.0942945777272536,732.0
-19.99997530130155,0.03143162941839752,205.0
-19.99997530130155,-0.03143162941839262,747.0
-19.999777712079982,-0.0942945777272487,1138.0
-19.99938253558892,-0.1571565944553349,2000.0
-19.998789775732504,-0.2200170585590544,277.0
-19.99799943836689,-0.282875349010123,695.0
-19.99701153130019,-0.3457308448017309,1100.0
-19.9958260642924,-0.40858292495470466,1726.0
-19.994443049055327,-0.47143096852358923,1012.0
-19.99286249925242,-0.5342743546028085,1261.0
-19.99108443049868,-0.5971124623328266,1403.0
-19.989108860360496,-0.6599446709062197,1542.0
-19.986935808355454,-0.7227703595738799,832.0
-19.984565295952162,-0.7855889076510859,179.0
-19.98199734657004,-0.8483996945236617,606.0
-19.979231985579073,-0.9112020996541343,930.0
-19.97626924029957,-0.9739955025878029,443.0
-19.973109140001892,-1.0367792829589386,1388.0
-19.96975171590617,-1.0995528204968523,20.0
-19.966197001181982,-1.1623154950320482,1139.0
-19.96244503094804,-1.225066686502378,1122.0
-19.95849584227183,-1.2878057749591134,920.0
-19.95434947416926,-1.3505321405730983,336.0
-19.950005967604262,-1.4132451636408963,1096.0
-19.945465365488392,-1.475944224590855,745.0
-19.940727712680403,-1.5386287039892943,1996.0
-19.935793055985815,-1.6012979825465665,1268.0
-19.93066144415644,-1.6639514411231993,1303.0
-19.92533292788989,-1.7265884607360413,1396.0
-19.91980755982911,-1.7892084225643126,1044.0
-19.914085394561816,-1.8518107079557917,598.0
-19.908166488619994,-1.9143946984328637,1403.0
-19.902050900479317,-1.976959775698658,135.0
-19.895738690558566,-2.039505321643184,673.0
-19.889229921219062,-2.1020307183493827,1654.0
-19.882524656764012,-2.1645353480992586,105.0
-19.875622963437895,-2.227018593380011,1194.0
-19.86852490942581,-2.2894798368900693,948.0
-19.86123056485279,-2.351918461545265,1059.0
-19.853740001783112,-2.4143338504848657,627.0
-19.846053294219605,-2.4767253870776953,1073.0
-19.83817051810288,-2.539092454928253,1786.0
-19.830091751310626,-2.6014344378827396,720.0
-19.821817073656792,-2.66375072003522,438.0
-19.813346566890836,-2.72604068573364,998.0
-19.804680314696906,-2.7883037195859384,910.0
-19.795818402693012,-2.8505392064661548,1084.0
-19.786760918430172,-2.91274653152045,47.0
-19.777507951391563,-2.974925080173211,235.0
-19.76805959299162,-3.0370742381331435,493.0
-19.758415936575155,-3.099193391399285,1959.0
-19.748577077416407,-3.161281926267139,1339.0
-19.738543112718126,-3.223339229334676,306.0
-19.7283141416106,-3.285364687508418,212.0
-19.71789026515067,-3.347357688009527,1525.0
-19.70727158632075,-3.4093176183797933,1106.0
-19.69645821002779,-3.4712438664877587,211.0
-19.685450243102252,-3.5331358205347003,1621.0
-19.67424779429706,-3.594992869060703,295.0
-19.662850974286496,-3.6568144009507266,645.0
-19.651259895665145,-3.718599805440581,94.0
-19.639474672946754,-3.7803484721230314,1819.0
-19.627495422563122,-3.8420597909537664,1403.0
-19.615322262862932,-3.9037331522574514,266.0
-19.60295531411058,-3.9653679467337795,289.0
-19.59039469848502,-4.026963565463436,57.0
-19.577640540078512,-4.088519399914144,1242.0
-19.56469296489542,-4.150034841946699,1814.0
-19.551552100850977,-4.211509283820918,1299.0
-19.538218077769987,-4.272942118201711,1484.0
-19.524691027385575,-4.334332738165026,869.0
-19.510971083337886,-4.395680537203862,1579.0
-19.497058381172728,-4.456984909234297,47.0
-19.48295305834028,-4.518245248601408,1273.0
-19.46865525419369,-4.579460950085327,1518.0
-19.45416510998774,-4.640631408907157,1672.0
-19.439482768877426,-4.701756020734977,1241.0
-19.424608375916538,-4.762834181689834,1511.0
-19.409542078056244,-4.82386528835166,1053.0
-19.394284024143637,-4.884848737765262,494.0
-19.378834364920248,-4.945783927446295,83.0
-19.363193253020572,-5.0066702553871645,1421.0
-19.34736084297056,-5.067507120063039,57.0
-19.331337291186077,-5.128293920437729,679.0
-19.315122755971384,-5.189030055969656,1179.0
-19.29871739751754,-5.249714926617813,1746.0
-19.28212137790085,-5.310347932847619,867.0
-19.265334861081246,-5.370928475636929,1660.0
-19.24835801290067,-5.431455956481882,330.0
-19.23119100108145,-5.491929777402839,605.0
-19.2138339952246,-5.552349340950316,308.0
-19.196287166808215,-5.612714050210847,580.0
-19.178550689185712,-5.673023308812887,1636.0
-19.16062473758414,-5.733276520932744,1812.0
-19.14250948910247,-5.793473091300404,981.0
-19.124205122709807,-5.853612425205474,816.0
-19.105711819243655,-5.913693928503005,1630.0
-19.08702976140811,-5.97371700761938,826.0
-19.06815913377206,-6.033681069558211,605.0
-19.049100122767374,-6.0935855219061335,525.0
-19.02985291668703,-6.153429772838726,1013.0
-19.0104177056833,-6.213213231126305,348.0
-18.99079468176582,-6.272935306139783,1418.0
-18.970984038799735,-6.332595407856532,129.0
-18.950985972503766,-6.392192946866161,1556.0
-18.93080068044827,-6.45172733437637,1278.0
-18.910428362053302,-6.511197982218784,270.0
-18.889869218586643,-6.570604302854711,1851.0
-18.86912345316179,-6.629945709381008,569.0
-18.848191270735985,-6.689221615535831,1485.0
-18.82707287810817,-6.748431435704436,1695.0
-18.80576848391693,-6.807574584925006,864.0
-18.784278298638462,-6.8666504788943605,1543.0
-18.762602534584477,-6.925658533973803,146.0
-18.74074140590011,-6.984598167194819,1113.0
-18.718695128561794,-7.043468796264869,1635.0
-18.69646392037514,-7.1022698395731645,1096.0
-18.674048000972775,-7.161000716196359,269.0
-18.651447591812172,-7.21966084590432,1893.0
-18.62866291617347,-7.278249649165877,982.0
-18.605694199157274,-7.336766547154502,985.0
-18.582541667682392,-7.395210961754078,1901.0
-18.559205550483654,-7.453582315564564,1099.0
-18.5356860781096,-7.511880031907722,172.0
-18.51198348292023,-7.570103534832841,113.0
-18.4880979990847,-7.628252249122358,1318.0
-18.464029862579007,-7.686325600297624,694.0
-18.439779311183667,-7.744323014624509,1000.0
-18.415346584481355,-7.802243919119098,629.0
-18.39073192385453,-7.8600877415533805,1259.0
-18.365935572483096,-7.917853910460844,1994.0
-18.34095777534192,-7.975541855142179,667.0
-18.315798779198495,-8.03315100567087,1499.0
-18.29045883261045,-8.090680792898848,1468.0
-18.264938185923107,-8.148130648462132,1823.0
-18.239237091267015,-8.2055000047864,125.0
-18.21335580255545,-8.262788295092623,1441.0
-18.187294575481914,-8.319994953402682,715.0
-18.161053667517606,-8.37711941454491,1417.0
-18.13463333790887,-8.434161114159737,1042.0
-18.108033847674644,-8.491119488705205,1912.0
-18.081255459603895,-8.54799397546257,1330.0
-18.054298438252975,-8.60478401254187,1528.0
-18.02716304994307,-8.661489038887442,1474.0
-17.99984956275751,-8.718108494283506,466.0
-17.972358246539176,-8.774641819359656,1761.0
-17.944689372887783,-8.831088455596412,1727.0
-17.916843215157233,-8.887447845330755,27.0
-17.888820048452892,-8.943719431761592,1728.0
-17.860620149628893,-8.999902658955282,775.0
-17.83224379728538,-9.055996971851144,1721.0
-17.803691271765768,-9.112001816266902,409.0
-17.77496285515397,-9.167916638904208,1938.0
-17.746058831271608,-9.223740887354055,162.0
-17.716979485675218,-9.279474010102266,1910.0
-17.687725105653417,-9.335115456534957,297.0
-17.658295980224068,-9.390664676943935,597.0
-17.628692400131428,-9.44612112253217,498.0
-17.598914657843277,-9.501484245419187,648.0
-17.56896304754803,-9.556753498646483,761.0
-17.538837865151812,-9.611928336182963,1380.0
-17.508539408275563,-9.667008212930288,833.0
-17.478067976252078,-9.721992584728277,609.0
-17.44742387012305,-9.776880908360313,1931.0
-17.416607392636116,-9.831672641558658,831.0
-17.38561884824183,-9.88636724300986,960.0
-17.354458543090697,-9.940964172360058,1686.0
-17.32312678503012,-9.995462890220342,742.0
-17.29162388360136,-10.049862858172098,1475.0
-17.259950150036495,-10.104163538772282,482.0
-17.228105897255322,-10.158364395558785,141.0
-17.19609143986229,-10.212464893055685,1520.0
-17.16390709414338,-10.266464496778555,623.0
-17.131553178062966,-10.320362673239769,201.0
-17.0990300112607,-10.374158889953723,286.0
-17.06633791504835,-10.427852615442122,300.0
-17.033477212406595,-10.481443319239258,721.0
-17.000448227981874,-10.534930471897187,1951.0
-16.96725128808315,-10.588313544991035,1924.0
-16.93388672067871,-10.641592011124146,330.0
-16.90035485539291,-10.694765343933328,510.0
-16.8666560235029,-10.747833018094077,166.0
-16.832790557935414,-10.80079450932571,79.0
-16.79875879326339,-10.853649294396606,28.0
-16.76456106570275,-10.906396851129315,548.0
-16.730197713109032,-10.959036658405761,817.0
-16.695669074974052,-11.011568196172384,1411.0
-16.66097549242257,-11.06399094544525,117.0
-16.626117308208915,-11.116304388315205,332.0
-16.591094866713576,-11.168508007953005,332.0
-16.55590851393984,-11.220601288614366,718.0
-16.520558597510323,-11.27258371564513,1630.0
-16.48504546666359,-11.32445477548629,1599.0
-16.449369472250673,-11.376213955679088,1796.0
-16.413530966731592,-11.427860744870104,983.0
-16.377530304171916,-11.479394632816248,1679.0
-16.341367840239222,-11.530815110389867,1764.0
-16.30504393219961,-11.582121669583717,138.0
-16.26855893891416,-11.633313803516012,184.0
-16.23191322083538,-11.684391006435446,404.0
-16.195107140003678,-11.735352773726145,1042.0
-16.158141060043725,-11.786198601912703,1190.0
-16.121015346160938,-11.836927988665114,1975.0
-16.08373036513781,-11.88754043280375,955.0
-16.046286485330313,-11.93803543430433,1254.0
-16.008684076664252,-11.988412494302839,330.0
-15.970923510631634,-12.038671115100444,590.0
-15.933005160286946,-12.08881080016846,1518.0
-15.894929400243527,-12.138831054153194,59.0
-15.856696606669825,-12.188731382880897,263.0
-15.818307157285702,-12.238511293362603,1760.0
-15.779761431358708,-12.288170293799002,809.0
-15.741059809700298,-12.33770789358534,973.0
-15.70220267466212,-12.387123603316217,740.0
-15.663190410132193,-12.436416934790458,871.0
-15.624023401531147,-12.485587401015906,577.0
-15.5847020358084,-12.534634516214247,1034.0
-15.545226701438324,-12.58355779582583,706.0
-15.505597788416436,-12.632356756514413,1537.0
-15.465815688255528,-12.681030916171965,613.0
-15.425880793981786,-12.729579793923438,1279.0
-15.385793500130942,-12.778002910131477,1918.0
-15.34555420274433,-12.826299786401215,996.0
-15.305163299365024,-12.874469945584943,1160.0
-15.264621189033875,-12.922512911786859,633.0
-15.223928272285573,-12.970428210367771,567.0
-15.183084951144705,-13.018215367949754,48.0
-15.142091629121769,-13.065873912420878,468.0
-15.100948711209192,-13.113403372939818,397.0
-15.059656603877343,-13.160803279940534,289.0
-15.018215715070482,-13.20807316513692,1668.0
-14.976626454202764,-13.255212561527404,1987.0
-14.93488923215419,-13.302221003399577,456.0
-14.893004461266514,-13.3490980263348,1304.0
-14.85097255533923,-13.39584316721277,42.0
-14.80879392962541,-13.442455964216123,1442.0
-14.76646900082767,-13.488935956834975,1697.0
-14.723998187094017,-13.535282685871476,1276.0
-14.681381908013709,-13.58149569344436,889.0
-14.638620584613149,-13.62757452299345,1702.0
-14.595714639351678,-13.67351871928419,341.0
-14.552664496117437,-13.719327828412112,1302.0
-14.509470580223178,-13.765001397807342,338.0
-14.466133318402024,-13.810538976239082,1509.0
-14.422653138803298,-13.85594011382004,1968.0
-14.379030470988285,-13.901204362010883,4.0
-14.335265745925948,-13.946331273624693,1371.0
-14.291359395988737,-13.991320402831338,1693.0
-14.247311854948244,-14.036171305161933,744.0
-14.203123557970983,-14.08088353751318,24.0
-14.158794941614062,-14.125456658151768,783.0
-14.114326443820843,-14.169890226718753,536.0
-14.069718503916683,-14.214183804233873,1301.0
-14.024971562604511,-14.25833695309992,1638.0
-13.98008606196055,-14.302349237107041,792.0
-13.935062445429907,-14.34622022143704,1276.0
-13.88990115782219,-14.389949472667713,15.0
-13.844602645307136,-14.433536558777087,1211.0
-13.799167355410196,-14.4769810491477,531.0
-13.753595737008089,-14.520282514570884,380.0
-13.707888240324415,-14.563440527250958,409.0
-13.662045316925155,-14.606454660809495,943.0
-13.61606741971425,-14.649324490289516,1006.0
-13.569955002929115,-14.692049592159668,436.0
-13.523708522136122,-14.734629544318471,1945.0
-13.47732843422616,-14.77706392609841,1789.0
-13.430815197410057,-14.819352318270155,610.0
-13.384169271214095,-14.86149430304666,1184.0
-13.337391116475462,-14.90348946408731,1386.0
-13.290481195337678,-14.945337386502038,994.0
-13.243439971246067,-14.987037656855406,975.0
-13.196267908943131,-15.028589863170719,961.0
-13.148965474464006,-15.06999359493406,25.0
-13.101533135131838,-15.111248443098358,1379.0
-13.05397135955314,-15.152354000087456,539.0
-13.00628061761322,-15.193309859800092,50.0
-12.958461380471464,-15.234115617613961,296.0
-12.91051412055678,-15.274770870389645,1519.0
-12.86243931156282,-15.315275216474673,1856.0
-12.81423742844337,-15.355628255707451,1052.0
-12.765908947407665,-15.395829589421187,231.0
-12.717454345915636,-15.435878820447883,1579.0
-12.668874102673218,-15.475775553122237,1176.0
-12.620168697627614,-15.515519393285553,790.0
-12.571338611962602,-15.555109948289605,1329.0
-12.522384328093692,-15.594546827000569,284.0
-12.473306329663409,-15.633829639802869,1808.0
-12.424105101536556,-15.672957998602987,1915.0
-12.374781129795336,-15.711931516833353,1748.0
-12.3253349017346,-15.75074980945615,734.0
-12.27576690585706,-15.78941249296707,1855.0
-12.226077631868396,-15.827919185399175,482.0
-12.176267570672447,-15.866269506326638,573.0
-12.126337214366409,-15.904463076868465,58.0
-12.076287056235893,-15.942499519692305,1675.0
-12.026117590750093,-15.980378459018144,1479.0
-11.975829313556893,-16.01809952062202,1822.0
-11.92542272147801,-16.05566233183969,879.0
-11.874898312504012,-16.093066521570382,644.0
-11.82425658578943,-16.130311720280403,604.0
-11.773498041647878,-16.167397560006794,26.0
-11.722623181547025,-16.204323674361,940.0
-11.671632508103675,-16.24108969853247,847.0
-11.620526525078855,-16.277695269292234,150.0
-11.569305737372744,-16.31414002499654,839.0
-11.517970651019741,-16.350423605590404,1689.0
-11.466521773183453,-16.38654565261116,1821.0
-11.41495961215172,-16.422505809192003,1856.0
-11.363284677331514,-16.45830372006553,70.0
-11.311497479243965,-16.493939031567248,117.0
-11.259598529519337,-16.529411391639027,580.0
-11.207588340891906,-16.564720449832645,1343.0
-11.155467427194925,-16.599865857313215,20.0
-11.1032363033556,-16.634847266862607,544.0
-11.050895485389901,-16.669664332882924,1650.0
-10.998445490397534,-16.704316711399905,204.0
-10.94588683655685,-16.738804060066283,1891.0
-10.89322004311965,-16.773126038165227,207.0
-10.84044563040611,-16.807282306613676,690.0
-10.787564119799619,-16.841272527965693,1657.0
-10.734576033741677,-16.875096366415775,630.0
-10.681481895726645,-16.908753487802223,867.0
-10.628282230296634,-16.94224355961042,510.0
-10.574977563036342,-16.975566250976076,1452.0
-10.521568420567789,-17.00872123268856,20.0
-10.468055330545155,-17.041708177194124,364.0
-10.414438821649618,-17.074526758599117,974.0
-10.360719423584028,-17.107176652673246,1243.0
-10.306897667067727,-17.139657536852766,1160.0
-10.25297408383135,-17.171969090243632,596.0
-10.19894920661148,-17.204110993624724,169.0
-10.144823569145451,-17.236082929450966,938.0
-10.090597706166037,-17.26788458185648,890.0
-10.036272153396231,-17.299515636657674,504.0
-9.981847447543863,-17.3309757813564,372.0
-9.927324126296348,-17.362264705143,50.0
-9.872702728315412,-17.39338209889938,1787.0
-9.817983793231681,-17.42432765520208,37.0
-9.763167861639396,-17.45510106832532,1814.0
-9.708255475091118,-17.48570203424396,1411.0
-9.65324717609229,-17.51613025063659,492.0
-9.598143508095914,-17.546385416888466,1361.0
-9.542945015497239,-17.576467234094466,132.0
-9.487652243628279,-17.60637540506209,960.0
-9.4322657387525,-17.63610963431436,1392.0
-9.37678604805938,-17.665669628092758,383.0
-9.321213719659069,-17.695055094360107,1269.0
-9.265549302576888,-17.724265742803478,539.0
-9.209793346747942,-17.753301284837065,1277.0
-9.153946403011737,-17.782161433604983,96.0
-9.098009023106647,-17.81084590398418,797.0
-9.041981759664505,-17.8393544125872,442.0
-8.985865166205198,-17.86768667776498,1939.0
-8.929659797131091,-17.895842419609664,648.0
-8.873366207721613,-17.923821359957373,1296.0
-8.816984954127808,-17.95162322239089,533.0
-8.760516593366745,-17.979247732242467,806.0
-8.703961683316091,-18.006694616596498,1613.0
-8.647320782708547,-18.033963604292232,1535.0
-8.590594451126414,-18.061054425926415,261.0
-8.533783248995949,-18.087966813856006,974.0
-8.476887737581892,-18.114700502200797,1260.0
-8.41990847898196,-18.141255226846013,877.0
-8.362846036121196,-18.167630725444965,1385.0
-8.305700972746468,-18.193826737421634,244.0
-8.248473853420933,-18.219843003973203,183.0
-8.19116524351837,-18.245679268072664,1010.0
-8.133775709217645,-18.27133527447135,50.0
-8.076305817497158,-18.29681076970141,1559.0
-8.018756136129156,-18.322105502078387,1068.0
-7.961127233674176,-18.347219221703636,1167.0
-7.903419679475405,-18.37215168046685,873.0
-7.8456340436531145,-18.39690263204845,1733.0
-7.787770897098934,-18.421471831922087,1988.0
-7.729830811470255,-18.445859037357003,1628.0
-7.67181435918464,-18.47006400742045,1868.0
-7.613722113414062,-18.494086502980075,665.0
-7.555554648079296,-18.517926286706277,940.0
-7.497312537844292,-18.541583123074545,467.0
-7.438996358110407,-18.565056778367797,1089.0
-7.380606685010763,-18.588347020678693,1773.0
-7.322144095404608,-18.61145361991189,498.0
-7.263609166871518,-18.634376347786368,303.0
-7.205002477705756,-18.657114977837647,1656.0
-7.1463246069105235,-18.679669285420047,25.0
-7.087576134192312,-18.70203904770888,505.0
-7.028757639955067,-18.724224043702673,1167.0
-6.969869705294521,-18.746224054225365,1460.0
-6.910912911992479,-18.768038861928428,680.0
-6.851887842510989,-18.78966825129305,1524.0
-6.792795079986632,-18.811112008632275,628.0
-6.733635208224809,-18.832369922093054,1573.0
-6.674408811693878,-18.85344178165841,737.0
-6.615116475519422,-18.874327379149477,1972.0
-6.555758785478524,-18.89502650822753,301.0
-6.496336327993882,-18.9155389643961,1373.0
-6.436849690128078,-18.935864545002904,696.0
-6.377299459577742,-18.956003049241932,1951.0
-6.3176862246678205,-18.975954278155353,1153.0
-6.258010574345656,-18.99571803463554,1350.0
-6.198273098175227,-19.015294123426997,1331.0
-6.138474386331366,-19.03468235112826,1542.0
-6.078615029593832,-19.053882526193867,300.0
-6.018695619341523,-19.072894458936197,124.0
-5.958716747546685,-19.091717961527365,1844.0
-5.898679006768964,-19.110352848001085,1577.0
-5.838582990149596,-19.12879893425449,1534.0
-5.778429291405606,-19.147056038049968,1771.0
-5.718218504823839,-19.165123979016943,1708.0
-5.65795122525515,-19.18300257865368,1726.0
-5.597628048108501,-19.200691660329035,1354.0
-5.537249569345141,-19.218191049284194,1765.0
-5.476816385472622,-19.235500572634407,828.0
-5.416329093538953,-19.25262005937071,66.0
-5.35578829112675,-19.269549340361586,1466.0
-5.295194576347237,-19.28628824835465,1572.0
-5.234548547834384,-19.302836617978326,408.0
-5.173850804739043,-19.31919428574342,1614.0
-5.113101946722926,-19.335361090044792,1278.0
-5.052302573952737,-19.351336871162946,253.0
-4.991453287094289,-19.367121471265566,168.0
-4.930554687306468,-19.382714734409113,1777.0
-4.869607376235362,-19.398116506540376,369.0
-4.808611956008288,-19.41332663549795,791.0
-4.747569029227902,-19.428344971013768,858.0
-4.686479198966152,-19.443171364714594,1219.0
-4.625343068758366,-19.457805670123467,1959.0
-4.5641612425973435,-19.47224774266115,904.0
-4.502934324927285,-19.48649743964758,767.0
-4.441662920637867,-19.500554620303255,1950.0
-4.38034763505833,-19.514419145750633,647.0
-4.3189890739513785,-19.528090879015508,354.0
-4.257587843507261,-19.541569685028357,1454.0
-4.19614455033783,-19.554855430625665,495.0
-4.1346598014704385,-19.567947984551278,66.0
-4.07313420434202,-19.580847217457652,64.0
-4.0115683667930515,-19.593553001907168,2000.0
-3.9499628970616136,-19.606065212373352,756.0
-3.8883184037772818,-19.618383725242172,1482.0
-3.826635495955162,-19.6305084188132,1629.0
-3.7649147829899294,-19.64243917330085,1274.0
-3.7031568746497,-19.65417587083556,554.0
-3.641362381070063,-19.665718395464932,1426.0
-3.5795319127481,-19.6770666331549,875.0
-3.5176660805362547,-19.68822047179086,335.0
-3.4557654956363617,-19.699179801178758,1188.0
-3.3938307695935794,-19.709944513046196,669.0
-3.331862514290412,-19.720514501043485,1686.0
-3.269861341940566,-19.73088966074471,1489.0
-3.20782786508295,-19.741069889648774,763.0
-3.145762696575674,-19.751055087180355,476.0
-3.083666449589895,-19.760845154690973,1240.0
-3.021539737603809,-19.770439995459917,1678.0
-2.9593831743966414,-19.77983951469521,374.0
-2.897197374042481,-19.789043619534556,863.0
-2.834982950904261,-19.79805221904625,511.0
-2.7727405196277495,-19.80686522423007,7.0
-2.7104706951353648,-19.815482548018164,1356.0
-2.648174092620174,-19.823904105275915,51.0
-2.585851327539779,-19.83212981280278,7.0
-2.523503015610309,-19.840159589333087,819.0
-2.461129772800226,-19.847993355536882,384.0
-2.398732215324299,-19.855631034020686,627.0
-2.3363109596375655,-19.863072549328248,1536.0
-2.273866622429135,-19.87031782794132,732.0
-2.2113998206161503,-19.87736679828037,1707.0
-2.1489111713377462,-19.88421939070528,1814.0
-2.086401291948846,-19.890875537516045,826.0
-2.0238708000141155,-19.897335172953444,577.0
-1.961320313301914,-19.903598233199677,787.0
-1.8987504497780856,-19.909664656379007,138.0
-1.836161827599925,-19.915534382558377,1121.0
-1.7735550651100351,-19.921207353747977,1583.0
-1.7109307808302887,-19.926683513901843,1968.0
-1.6482895934556108,-19.931962808918392,173.0
-1.5856321218479206,-19.937045186640972,166.0
-1.52295898503007,-19.941930596858374,1725.0
-1.460270802179622,-19.94661899130531,1928.0
-1.3975681926227863,-19.951110323662917,1835.0
-1.3348517758283536,-19.955404549559198,1628.0
-1.2721221714014699,-19.95950162656946,24.0
-1.209379999077569,-19.963401514216738,1824.0
-1.1466258787163006,-19.967104173972203,1120.0
-1.0838604302953028,-19.97060956925552,1522.0
-1.0210842739041452,-19.97391766543523,1051.0
-0.9582980297381707,-19.977028429829097,358.0
-0.8955023180924359,-19.979941831704394,8.0
-0.8326977593554781,-19.98265784227825,1442.0
-0.7698849740032396,-19.985176434717907,1450.0
-0.7070645825929902,-19.987497584141007,1743.0
-0.6442372057570906,-19.98962126761581,8.0
-0.5814034641969138,-19.991547464161442,1007.0
-0.5185639786767658,-19.9932761547481,1030.0
-0.4557193700176472,-19.994807322297227,262.0
-0.39287025909117196,-19.996140951681692,347.0
-0.33001726681348764,-19.997277029725947,1384.0
-0.2671610141390343,-19.998215545206133,1746.0
-0.20430212205448056,-19.99895648885021,1761.0
-0.14144121157255343,-19.999499853338055,16.0
-0.07857890372597376,-19.999845633301504,1260.0
-0.015715819561214442,-19.999993825324434,30.0
0.04714741986758205,-19.99994442794279,737.0
0.11001019350468602,-19.99969744164459,1814.0
0.17287188029902284,-19.999252868869924,383.0
0.23573185921025536,-19.998610714010944,980.0
0.298589509214866,-19.997770983411797,1101.0
0.361444209312399,-19.996733685368582,1417.0
0.42429533853154205,-19.995498830129254,204.0
0.4871422759362079,-19.994066429893536,1937.0
0.5499844006317757,-19.992436498812786,559.0
0.6128210917711534,-19.990609052989868,873.0
0.6756517285609481,-19.988584110478975,696.0
0.7384756902675267,-19.986361691285484,1727.0
0.8012923562232563,-19.983941817365714,994.0
0.8641011058325816,-19.981324512626756,107.0
0.9269013185781039,-19.978509802926197,240.0
0.989692374026817,-19.975497716071885,1359.0
1.0524736518361841,-19.972288281821655,1605.0
1.1152445317602135,-19.968881531883024,1632.0
1.1780043936556919,-19.96527749991289,1569.0
1.2407526174882584,-19.961476221517188,1406.0
1.3034885833384768,-19.957477734250546,753.0
1.3662116714080668,-19.953282077615913,984.0
1.428921262025956,-19.948889293064166,894.0
1.4916167356544365,-19.944299423993705,1834.0
1.5542974728952172,-19.939512515750014,1688.0
1.616962854495647,-19.934528615625233,406.0
1.6796122613547801,-19.92934777285766,436.0
1.7422450745294407,-19.923970038631303,1433.0
1.804860675240442,-19.91839546607534,1171.0
1.8674584448786478,-19.912624110263607,1612.0
1.93003776501103,-19.90665602821406,1422.0
1.9925980173868854,-19.90049127888821,20.0
2.05513858394389,-19.894129923190537,525.0
2.1176588468141526,-19.887572023967877,1638.0
2.1801581883304237,-19.880817646008822,1775.0
2.2426359910321296,-19.873866856043072,1579.0
2.3050916376715054,-19.866719722740765,469.0
2.3675245112196235,-19.859376316711817,1330.0
2.429933994872596,-19.851836710505214,946.0
2.492319472057614,-19.84410097860829,949.0
2.5546803264389872,-19.836169197446004,738.0
2.6170159419243393,-19.828041445380173,1072.0
2.6793257026706407,-19.81971780270871,207.0
2.7416089930902388,-19.811198351664817,412.0
2.803865197857048,-19.802483176416185,94.0
2.8660937019125754,-19.793572363064154,914.0
2.928293890471942,-19.78446599964287,1929.0
2.990465149030065,-19.775164176118402,1571.0
3.0526068633676564,-19.76566698438787,1286.0
3.114718419557327,-19.755974518278524,453.0
3.176799203969583,-19.746086873546822,789.0
3.238848603278991,-19.736004147877495,757.0
3.300866004470185,-19.725726440882553,45.0
3.362850794843874,-19.71525385410033,1859.0
3.4248023620229935,-19.70458649099447,1965.0
3.4867200939587093,-19.693724456952893,1566.0
3.5486033789364084,-19.682667859286788,1526.0
3.6104516055818476,-19.671416807229505,589.0
3.672264162867142,-19.659971411935512,1354.0
3.7340404401167486,-19.648331786479297,1168.0
3.7957798270136047,-19.636498045854218,440.0
3.8574817136050865,-19.624470306971403,1074.0
3.9191454903090723,-19.612248688658575,1272.0
3.980770547919893,-19.59983331165889,1022.0
4.042356277614456,-19.58722429862973,876.0
4.103902070958208,-19.574421774141502,140.0
4.1654073199110915,-19.56142586467641,568.0
4.226871416833664,-19.548236698627186,1289.0
4.288293754493036,-19.534854406295842,1653.0
4.349673726068833,-19.521279119892387,1291.0
4.411010725159279,-19.5075109735335,102.0
4.472304145787133,-19.493550103241205,479.0
4.533553382405701,-19.479396646941552,1222.0
4.5947578299047525,-19.46505074446324,522.0
4.655916883616599,-19.450512537536227,1482.0
4.717029939322022,-19.43578216979033,862.0
4.778096393256186,-19.420859786753834,728.0
4.8391156421147095,-19.405745535852024,157.0
4.900087083059569,-19.39043956640573,1986.0
4.961010113725011,-19.374942029629874,354.0
5.021884132223597,-19.359253078631955,367.0
5.082708537152106,-19.34337286841054,335.0
5.14348272759742,-19.327301555853754,558.0
5.204206103142567,-19.311039299737693,374.0
5.264878063872579,-19.29458626072488,827.0
5.32549801038046,-19.27794260136267,1315.0
5.386065343773031,-19.261108486081664,1140.0
5.446579465676962,-19.244084081194046,767.0
5.507039778244616,-19.226869554891962,224.0
5.567445684159917,-19.20946507724588,236.0
5.62779658664435,-19.191870820202865,1247.0
5.688091889462804,-19.174086957584905,583.0
5.748330996929409,-19.1561136650872,339.0
5.808513313913533,-19.137951120276412,1761.0
5.868638245845598,-19.119599502588915,913.0
5.928705198722911,-19.101058993329033,971.0
5.988713579115635,-19.082329775667226,1165.0
6.04866279417258,-19.0634120346383,1561.0
6.108552251627093,-19.044305957139567,1228.0
6.168381359802845,-19.02501173192902,1543.0
6.228149527619781,-19.005529549623436,1995.0
6.287856164599895,-18.985859602696504,409.0
6.3475006808730345,-18.96600208547696,1411.0
6.407082487182809,-18.9459571941466,302.0
6.466600994892371,-18.925725126738392,670.0
6.526055615990183,-18.90530608313452,953.0
6.585445763095919,-18.884700265064364,1237.0
6.644770849466224,-18.86390787610255,484.0
6.704030289000462,-18.84292912166695,1425.0
6.763223496246598,-18.821764209016592,1035.0
6.822349886406923,-18.800413347249666,392.0
6.881408875343862,-18.77887674730144,459.0
6.940399879585679,-18.757154621942185,380.0
6.99932231633234,-18.735247185775055,1391.0
7.058175603461224,-18.71315465523397,1510.0
7.116959159532818,-18.69087724858151,1818.0
7.175672403796568,-18.668415185906714,1973.0
7.234314756196563,-18.64576868912292,897.0
7.292885637377216,-18.622937981965602,1807.0
7.351384468689087,-18.59992328999012,938.0
7.409810672194554,-18.576724840569494,395.0
7.468163670673466,-18.5533428628922,381.0
7.52644288762895,-18.529777587959863,1387.0
7.584647747293042,-18.506029248584976,925.0
7.642777674632399,-18.48209807938862,732.0
7.700832095353927,-18.45798431679816,454.0
7.758810435910543,-18.43368819904486,64.0
7.816712123506797,-18.40920996616155,1182.0
7.874536586104481,-18.384549859980307,511.0
7.9322832524283795,-18.359708124129977,1876.0
7.98995155197186,-18.334685004033815,1217.0
8.047540915002466,-18.309480746907084,1928.0
8.10505077256764,-18.284095601754565,2000.0
8.1624805565003,-18.258529819368114,132.0
8.219829699424396,-18.2327836523242,1213.0
8.277097634760619,-18.206857354981395,1483.0
8.334283796731931,-18.18075118347786,1302.0
8.39138762036919,-18.154465395728806,520.0
8.448408541516665,-18.12800025142399,1026.0
8.505345996837704,-18.10135601202509,464.0
8.562199423820257,-18.074532940763145,1322.0
8.618968260782374,-18.047531302635996,824.0
8.675651946877869,-18.020351364405588,1958.0
8.732249922101792,-17.992993394595388,377.0
8.788761627295928,-17.965457663487747,1314.0
8.845186504154412,-17.937744443121176,812.0
8.901523995229198,-17.909854007287688,1760.0
8.957773543935515,-17.88178663153011,1300.0
9.013934594557465,-17.85354259313933,1048.0
9.07000659225345,-17.825122171151563,1151.0
9.125988983061683,-17.796525646345604,806.0
9.181881213905598,-17.767753301240074,1291.0
9.23768273259941,-17.73880542009057,701.0
9.29339298785352,-17.709682288886917,202.0
9.349011429279921,-17.68038419535032,444.0
9.404537507397722,-17.650911428930502,698.0
9.459970673638534,-17.621264280802865,794.0
9.515310380351838,-17.591443043865635,477.0
9.570556080810501,-17.56144801273691,956.0
9.625707229216115,-17.531279483751796,547.0
9.68076328070435,-17.500937754959487,809.0
9.735723691350431,-17.47042312612027,578.0
9.790587918174454,-17.439735898702608,1770.0
9.84535541914677,-17.40887637588013,1252.0
9.900025653193286,-17.377844862528693,872.0
9.954598080200899,-17.346641665223288,1038.0
10.009072161022791,-17.315267092235064,389.0
10.063447357483708,-17.283721453528294,821.0
10.117723132385361,-17.25200506075726,351.0
10.1718989495117,-17.220118227263214,983.0
10.225974273634154,-17.188061268071287,797.0
10.279948570517021,-17.15583449988735,71.0
10.333821306922692,-17.12343824109488,1441.0
10.387591950616876,-17.090872811751876,49.0
10.441259970373952,-17.058138533587613,402.0
10.494824835982152,-17.025235729999515,1083.0
10.548286018248834,-16.99216472604995,114.0
10.601642989005642,-16.95892584846303,1611.0
10.65489522111383,-16.92551942562135,852.0
10.708042188469404,-16.89194578756276,1621.0
10.761083366008293,-16.858205265977148,1271.0
10.814018229711614,-16.824298194203074,1798.0
10.866846256610811,-16.790224907224548,1388.0
10.919566924792775,-16.75598574166771,168.0
10.97217971340509,-16.721581035797477,1182.0
11.024684102661126,-16.687011129514207,1450.0
11.077079573845147,-16.65227636435039,600.0
11.129365609317512,-16.617377083467193,241.0
11.181541692519726,-16.58231363165114,1664.0
11.233607307979586,-16.547086355310643,912.0
11.285561941316205,-16.511695602472667,1609.0
11.337405079245187,-16.476141722779197,442.0
11.38913620958365,-16.440425067483826,1981.0
11.440754821255245,-16.404545989448316,1467.0
11.492260404295296,-16.36850484313905,1482.0
11.543652449855779,-16.332301984623562,1642.0
11.594930450210331,-16.295937771567036,349.0
11.646093898759325,-16.259412563228747,1311.0
11.697142290034858,-16.222726720458496,1807.0
11.748075119705682,-16.185880605693107,790.0
11.79889188458228,-16.148874582952782,1679.0
11.849592082621786,-16.111709017837526,371.0
11.90017521293296,-16.074384277523542,540.0
11.950640775781087,-16.03690073075962,1990.0
12.000988272593002,-15.999258747863454,258.0
12.051217205961972,-15.961458700717992,1465.0
12.101327079652563,-15.923500962767816,354.0
12.151317398605633,-15.88538590901537,1653.0
12.20118766894317,-15.8471139160173,1626.0
12.250937397973146,-15.808685361880757,1048.0
12.300566094194458,-15.770100626259607,310.0
12.350073267301727,-15.731360090350714,446.0
12.399458428190172,-15.692464136890155,1810.0
12.448721088960388,-15.653413150149486,687.0
12.497860762923247,-15.614207515931877,366.0
12.546876964604671,-15.574847621568331,1426.0
12.595769209750374,-15.535333855913894,1505.0
12.64453701533074,-15.495666609343747,1832.0
12.693179899545555,-15.455846273749383,1771.0
12.741697381828711,-15.415873242534765,1264.0
12.790088982853057,-15.375747910612375,738.0
12.838354224535074,-15.33547067439935,321.0
12.88649263003957,-15.295041931813584,1738.0
12.93450372378447,-15.254462082269756,1288.0
12.98238703144545,-15.213731526675398,1439.0
13.030142079960674,-15.17285066742694,1459.0
13.077768397535381,-15.131819908405756,150.0
13.125265513646658,-15.09063965497413,917.0
13.172632959048027,-15.049310313971256,1305.0
13.21987026577405,-15.00783229370928,1518.0
13.266976967145032,-14.966206003969182,223.0
13.313952597771586,-14.924431855996772,1145.0
13.3607966935592,-14.882510262498645,484.0
13.407508791712896,-14.84044163763806,820.0
13.45408843074176,-14.798226397030852,1371.0
13.500535150463467,-14.755864957741395,1128.0
13.5468484920089,-14.713357738278376,108.0
13.593027997826646,-14.67070515859074,441.0
13.639073211687517,-14.627907640063494,1560.0
13.684983678689033,-14.584965605513602,1500.0
13.730758945259973,-14.541879479185738,1893.0
13.776398559164825,-14.49864968674812,1467.0
13.82190206950822,-14.455276655288351,1454.0
13.867269026739454,-14.41176081330913,1489.0
13.912498982656897,-14.368102590724037,27.0
13.957591490412387,-14.324302418853343,365.0
14.002546104515709,-14.28036073041966,1501.0
14.047362380838965,-14.236277959543717,1316.0
14.09203987662093,-14.192054541740093,765.0
14.136578150471486,-14.14769091391285,1964.0
14.18097676237595,-14.103187514351262,817.0
14.22523527369943,-14.058544782725468,1625.0
14.269353247191125,-14.013763160082163,564.0
14.31333024698871,-13.968843088840185,701.0
14.357165838622594,-13.923785012786155,6.0
14.400859589020206,-13.878589377070163,300.0
14.444411066510312,-13.833256628201271,64.0
14.48781984082727,-13.787787214043147,1327.0
14.531085483115227,-13.742181583809678,907.0
14.57420756593244,-13.696440188060459,24.0
14.617185663255455,-13.650563478696371,1256.0
14.660019350483285,-13.604551908955166,203.0
14.70270820444167,-13.558405933406906,196.0
14.745251803387223,-13.512126007949519,1457.0
14.787649727011607,-13.465712589804282,815.0
14.82990155644564,-13.419166137511347,1353.0
14.872006874263517,-13.372487110925128,731.0
14.913965264486887,-13.325675971209812,616.0
14.955776312588931,-13.278733180834827,1490.0
14.997439605498531,-13.231659203570203,1154.0
15.038954731604306,-13.184454504482028,318.0
15.080321280758655,-13.137119549927894,1966.0
15.121538844281872,-13.089654807552202,533.0
15.162607014966152,-13.042060746281594,812.0
15.203525387079576,-12.994337836320355,1041.0
15.244293556370197,-12.946486549145684,1469.0
15.284911120069966,-12.898507357503096,1211.0
15.325377676898766,-12.850400735401715,102.0
15.365692827068306,-12.802167158109661,113.0
15.40585617228615,-12.753807102149253,1174.0
15.445867315759612,-12.705321045292362,447.0
15.485725862199644,-12.656709466555718,415.0
15.525431417824816,-12.607972846196098,345.0
15.564983590365163,-12.559111665705629,903.0
15.60438198906603,-12.510126407807064,1053.0
15.643626224692,-12.46101755644894,1046.0
15.682715909530708,-12.411785596800822,1358.0
15.72165065739664,-12.362431015248571,1479.0
15.760430083634997,-12.312954299389443,1598.0
15.79905380512548,-12.263355938027328,1890.0
15.837521440286071,-12.2136364211679,1904.0
15.87583260907678,-12.163796240013822,741.0
15.913986933003446,-12.113835886959821,1385.0
15.951984035121454,-12.063755855587853,191.0
15.989823540039431,-12.013556640662284,1922.0
16.02750507392301,-11.963238738124897,682.0
16.065028264498494,-11.912802645090053,1042.0
16.102392741056498,-11.862248859839813,1106.0
16.139598134455696,-11.811577881818934,110.0
16.176644077126397,-11.760790211629974,490.0
16.213530203074185,-11.709886351028393,1206.0
16.25025614788358,-11.658866802917508,1091.0
16.28682154872158,-11.607732071343584,28.0
16.3232260443413,-11.556482661490815,316.0
16.359469275085484,-11.505119079676406,1659.0
16.395550882890102,-11.453641833345479,1070.0
16.43147051128789,-11.402051431066099,85.0
16.46722780541182,-11.350348382524293,1348.0
16.502822411998665,-11.298533198518939,709.0
16.538253979392476,-11.246606390956742,1483.0
16.573522157548002,-11.194568472847239,498.0
16.60862659803424,-11.142419958297642,1931.0
16.64356695403781,-11.09016136250779,1799.0
16.67834288036638,-11.037793201765108,271.0
16.712954033452128,-10.985315993439436,1280.0
16.747400071355088,-10.932730255977942,1873.0
16.781680653766564,-10.880036508900005,1564.0
16.815795442012433,-10.82723527279212,1793.0
16.84974409905657,-10.774327069302672,181.0
16.883526289504132,-10.721312421136828,1783.0
16.917141679604853,-10.668191852051422,1256.0
16.950589937256392,-10.614965886849674,1121.0
16.983870732007595,-10.561635051376077,696.0
17.016983735061718,-10.508199872511224,1481.0
17.049928619279743,-10.45466087816652,1067.0
17.082705059183574,-10.401018597279014,766.0
17.115312730959232,-10.347273559806219,1722.0
17.1477513124601,-10.293426296720778,1007.0
17.180020483210086,-10.23947734000529,852.0
17.21211992440679,-10.185427222647016,1575.0
17.24404931892461,-10.131276478632676,442.0
17.275808351317966,-10.077025642943084,1887.0
17.30739670782435,-10.022675251547906,1159.0
17.33881407636742,-9.968225841400413,193.0
17.37006014656014,-9.91367795043208,18.0
17.401134609707793,-9.859032117547324,1630.0
17.432037158811035,-9.804288882618222,1178.0
17.46276748856897,-9.749448786479086,1976.0
17.493325295382135,-9.694512370921162,396.0
17.523710277355477,-9.639480178687334,1035.0
17.553922134301384,-9.584352753466657,1370.0
17.583960567742626,-9.529130639889056,1715.0
17.613825280915307,-9.473814383519912,583.0
17.643515978771777,-9.418404530854732,589.0
17.67303236798359,-9.362901629313658,1641.0
17.702374156944373,-9.307306227236108,1290.0
17.731541055772688,-9.251618873875403,1183.0
17.76053277631495,-9.195840119393246,1710.0
17.789349032148237,-9.139970514854337,1307.0
17.8179895385831,-9.08401061222097,1866.0
17.846454012666435,-9.027960964347496,641.0
17.874742173184224,-8.97182212497491,20.0
17.902853740664355,-8.915594648725362,1740.0
17.93078843737933,-8.859279091096731,536.0
17.95854598734907,-8.80287600845705,346.0
17.986126116343602,-8.746385958039047,1682.0
18.01352855188577,-8.689809497934702,207.0
18.04075302325395,-8.633147187089623,277.0
18.067799261484712,-8.57639958529758,682.0
18.094666999375452,-8.519567253195019,1016.0
18.121355971487084,-8.462650752255431,628.0
18.14786591414662,-8.405650644783854,1292.0
18.174196565449783,-8.348567493911354,201.0
18.20034766526361,-8.29140186358938,1584.0
18.22631895522901,-8.23415431858425,1052.0
18.252110178763324,-8.176825424471538,1279.0
18.27772108106284,-8.119415747630557,1417.0
18.303151409105332,-8.061925855238654,421.0
18.328400911652565,-8.004356315265671,38.0
18.353469339252737,-7.9467076964683745,1048.0
18.378356444242996,-7.888980568384733,338.0
18.40306198075186,-7.831175501328352,1648.0
18.42758570470163,-7.77329306638288,445.0
18.451927373810832,-7.715333835396269,537.0
18.476086747596607,-7.657298380975176,88.0
18.500063587377053,-7.5991872764793555,770.0
18.523857656273627,-7.541001096015895,750.0
18.547468719213462,-7.482740414433612,1326.0
18.570896542931703,-7.424405807317332,52.0
18.594140895973773,-7.365997850982286,638.0
18.617201548697718,-7.307517122468296,1916.0
18.64007827327644,-7.248964199534143,1262.0
18.662770843699935,-7.190339660651897,1052.0
18.68527903577757,-7.131644085001108,430.0
18.70760262714027,-7.072878052463128,198.0
18.72974139724269,-7.014042143615441,760.0
18.751695127365455,-6.9551369397258185,1849.0
18.773463600617283,-6.896163022746632,600.0
18.79504660193711,-6.837120975309151,1407.0
18.816443918096255,-6.77801138071769,1880.0
18.837655337700504,-6.718834822943909,922.0
18.858680651192216,-6.659591886621012,586.0
18.879519650852348,-6.60028315703804,1028.0
18.900172130802574,-6.540909220133983,1370.0
18.920637887007267,-6.4814706624920495,165.0
18.940916717275535,-6.4219680713339145,473.0
18.96100842126321,-6.36240203451382,647.0
18.980912800474854,-6.302773140512819,560.0
19.00062965826567,-6.24308197843301,1216.0
19.020158799843493,-6.183329137991617,483.0
19.0395000322707,-6.1235152095152126,247.0
19.058653164466083,-6.06364078393394,1852.0
19.077618007206794,-6.003706452775569,1639.0
19.09639437313018,-5.943712808159724,1613.0
19.11498207673564,-5.883660442791995,1969.0
19.133380934386434,-5.823549949958156,467.0
19.151590764311557,-5.763381923518198,459.0
19.169611386607475,-5.7031569579005135,244.0
19.187442623239928,-5.642875648096074,649.0
19.20508429804569,-5.5825385896524535,1574.0
19.22253623673432,-5.5221463786679905,1809.0
19.239798266889835,-5.461699611785954,333.0
19.256870217972484,-5.401198886188544,324.0
19.273751921320383,-5.340644799591048,1823.0
19.29044321015118,-5.280037950235979,348.0
19.30694391956375,-5.219378936887068,1473.0
19.323253886539764,-5.158668358823419,1940.0
19.33937294994535,-5.097906815833545,273.0
19.355300950532637,-5.037094908209523,1502.0
19.37103773094138,-4.976233236740952,1576.0
19.38658313570048,-4.915322402709071,700.0
19.401937011229517,-4.854363007880873,1955.0
19.417099205840287,-4.793355654503052,843.0
19.43206956973831,-4.732300945296109,315.0
19.446847955024253,-4.671199483448445,1114.0
19.461434215695466,-4.610051872610305,1796.0
19.475828207647382,-4.548858716887857,331.0
19.490029788674928,-4.4876206208372835,1922.0
19.50403881847397,-4.4263381894587,1437.0
19.517855158642675,-4.36501202819025,117.0
19.53147867268288,-4.303642742902088,880.0
19.544909226001437,-4.2422309398904625,1459.0
19.558146685911556,-4.180777225871624,138.0
19.57119092163411,-4.119282207975879,293.0
19.58404180429891,-4.057746493741649,1674.0
19.596699206946013,-3.996170691109362,1697.0
19.60916300452695,-3.934555408415496,1536.0
19.621433073905955,-3.872901254386626,1337.0
19.633509293861213,-3.811208838133301,1080.0
19.64539154508603,-3.7494787691440816,112.0
19.657079710190025,-3.6877116572795705,381.0
19.66857367370028,-3.6259081127662802,1786.0
19.679873322062488,-3.564068746190678,766.0
19.690978543642082,-3.5021941684931157,1102.0
19.701889228725314,-3.440284990961866,64.0
19.712605269520363,-3.378341825226976,1394.0
19.723126560158402,-3.316365283254279,1516.0
19.733452996694606,-3.2543559773394004,744.0
19.743584477109227,-3.192314520101603,130.0
19.75352090130858,-3.130241524477789,1572.0
19.763262171126023,-3.0681376037164956,1952.0
19.772808190322937,-3.0060033713717287,739.0
19.78215886458969,-2.943839441296961,1877.0
19.791314101546536,-2.881646427639113,1373.0
19.80027381074456,-2.8194249448323836,1480.0
19.809037903666557,-2.7571756075922504,1820.0
