-3.536147875460103,-45.098314912443946,300.48569245029233
-29.219809850537658,-19.752653642309035,168.80507870222564
7.9426041413818895,1.7781672907654567,133.99120653824116
3.4221248935534554,22.873787760868144,98.01986646064728
-19.852390184218777,14.800135096609264,-189.11548870395484
-17.718288630963137,31.78089728635536,-213.2415497333252
-16.15352883294063,-19.773284037725197,67.88536731078342
22.150806753852063,-19.552209828664097,-32.38080637829047
3.68694704001724,34.611838737317996,113.48626160881727
10.858709012321677,-26.42906751192928,-350.8985351828047
-44.896596343733385,5.825803624460898,56.269451590924255
-14.115403599746013,12.244997997302336,-91.14808390152017
11.119579995878038,-17.698300032574696,-52.89172647679617
-2.605390806859496,12.779887837497776,-251.36852582719692
-24.45587839713948,-12.077617459720503,267.5323335713041
-22.069755993422934,-25.786344599938367,0.1605694895527875
35.54226074185139,-0.3059841629676689,-102.5638717030263
-3.132611512139194,1.7841314988050225,-65.00672439445788
-10.967690840447373,-3.1522231865921158,-112.48824530674564
-1.7925054885577316,7.730656402861444,-120.55075546112319
11.360406251381697,7.313662581710497,155.29072813925328
12.50254172542685,21.708657864608703,-55.37592407879269
-19.025453832818783,-7.6587524798453535,-7.753595418488082
24.985287649793758,-63.835128187468904,-240.5999997280729
3.7182290675380814,21.904034498128524,-187.2151405147676
0.6292324391889635,10.564491687169875,-19.60484839906889
-35.76942583243349,13.26560247700894,64.68698071138186
-18.54297349869415,5.474068180894332,32.86738329229452
1.3203973960531779,-11.103900475064352,320.00604359436505
22.96057065965869,1.7723105271800355,-2.0563807861929653
-27.63365844883994,-6.286356287110265,485.5928223962069
-12.344380342274393,-14.86264635143252,342.9076968828234
17.141134652436097,-9.022442025820894,281.4020338469698
-40.24517557249161,-0.7004954208373859,-307.0155520183086
18.368302146613697,-0.3558091336336705,-141.42817877687224
-9.734052668204104,0.007028454570803984,-48.45176785516643
35.26667044494578,1.7245233122856267,339.0809538547054
-46.76177151972328,-15.619510818616638,-13.6056785332707
-18.169643670475757,-8.907849402650559,16.345971825642174
-41.65137525953951,0.5615332688249582,-160.34263408936033
-19.342273236312725,26.534752744517462,-123.19746139236767
19.610506996917803,-18.088274478023465,-155.36183262714036
-15.253832738677783,24.0614328166599,-168.08905274972264
-16.702823784847332,2.4655437502007875,-414.0471619159496
1.6462721378182708,-5.418578383656257,-141.50404143437223
-0.021303678091311465,-0.8346711931333675,109.96194391903704
11.75499961402858,0.7581177706341082,42.448908141254826
-45.157092599724976,5.301791398779464,115.38983822187853
12.442782073546105,-13.738295741507102,-115.08857137778644
-23.376918597509082,-13.275141009094577,147.38682041752432
-10.593139594605228,21.457175728357257,164.48187994963382
15.041926018342677,-6.911247858920293,106.7876588913322
-11.792060269838922,-22.32557367650227,494.18190422767964
-46.38451334793294,19.74568047209997,4.459200791033112
-13.562444101748367,0.06703652479643203,-77.71560756660362
-20.431437971473365,21.656152128021,77.4230202889773
10.235307375798527,-3.3517685398771513,-165.18418714135385
35.006529153190804,-9.2762973113673,-293.0509122705093
1.9313433156465925,3.153652057032696,62.11661657404016
-2.9316599122811744,25.267387600358013,-62.62544936435533
-7.342060454958222,4.647490737428354,85.49270230723269
-11.279041128314155,-15.10027604959694,-34.49216198957122
-27.462680406322818,-12.674435580173299,42.643070819840794
-31.831837166525357,-23.675305564530014,-60.505705119296024
2.074532451391327,22.401902198116392,235.41589754016186
-2.730586047873306,-7.26222183941608,-48.758806420513196
-29.600105346951015,2.7575217662856804,-63.73826214913328
-34.82876356371279,-12.711454336196839,-327.0941685583486
-15.276927043611721,-13.54878156883325,-17.5651392711669
-10.950533843084717,-9.603152380163147,-160.20302497104376
-18.593100199136828,-30.092304098339753,163.82582553465448
-17.405574916001918,-35.22992935862713,-129.0052361687836
-35.79767783335079,-6.4655717344891706,49.10490918785584
-20.054672423540797,-22.25536542912843,-133.07558746984606
-0.6827090737457002,4.115629858657491,78.05096754777576
26.92820089220248,4.978242368821013,262.7165339957744
-5.395538251467928,28.31710801598358,80.54313588840762
29.673960770347545,62.13078269229125,275.6206073665151
40.5375471322005,0.5920361306907467,418.8781207951785
13.248925531455312,-7.985965624154682,72.41652473925855
0.40943279782289366,0.4870295346669744,362.96334423031317
22.944343510773074,-7.0956942927676225,-41.108894276350476
-11.768573106202,13.155546929812935,-74.41574962855059
-5.052345554738535,-12.764092881333502,209.51095177349248
12.627209049375736,-1.0834094706362767,-60.83851647798741
17.95716134966241,-7.090580372273754,-123.81287706107199
-21.658283704975325,31.41716405739882,339.89206210491545
-15.656892289883332,-23.85700701212143,-108.99300955311988
-14.2458144073938,21.390106185059082,-4.447856369349675
28.149164469011655,19.303352470318472,70.38445059985722
31.42674243852014,11.29453083752354,19.366331951304876
50.04634829843636,-32.13347237044998,-96.90568875286527
18.80464486486528,14.818992858995475,-297.99887673676164
14.466957759422911,-9.605625468036225,-287.04831085953504
5.981627683518804,28.915990175904565,-18.67704460128865
17.742400193100472,1.34379572620323,70.12558467682611
-4.721022855782576,-8.582112389799082,-166.94476940218047
-14.014881695168498,21.62747036706329,-77.9757139464133
26.433873959221653,2.9895417587100677,105.95570734834077
18.6175901518989,-25.97607397898749,-223.40745126216922
25.230097370978733,42.47968551681359,-251.64304226638407
12.734551666959728,-17.30850170858027,165.95280869644162
-0.26576995385065305,3.3581150427204975,-100.242632917949
-0.06280791134232447,17.527974259151627,-161.61227732007148
39.65976303031989,27.83325288589396,168.7329210549842
-24.311629681127403,-5.918885376182535,84.1215857254461
3.0735753741911678,17.393983499778123,-36.41128595120668
10.373745526825742,-0.8455670329940825,215.1197770699944
-29.648606394938064,24.20373891759137,-111.7353290450688
7.455202754347205,9.517497749812591,248.0799176342116
-9.733427517510428,-3.434865573388814,12.346584396291846
-11.805919503636435,-14.618637989044066,-327.4055322327725
28.354975541563835,-7.576304678611532,-4.470551540495718
20.67703759605437,-13.02584262880343,278.59459366034423
-5.532694899951118,22.33982642043042,-185.65279825272407
17.45411661468642,-15.673034009438322,465.69625521832745
-1.0673933048478936,-10.963113624437963,232.76750724414728
-3.500622537998386,6.021575335881443,-279.0807896293432
-24.522689184527056,13.35820657664999,-107.48211198564526
-8.851245660358085,31.442346316952662,98.55591117411132
-10.88595633225822,4.9362762012140395,138.9234144448799
0.09984806099183048,-21.066427302074263,156.13751632470672
6.204643441360494,-6.00766258366288,58.29072121106853
-7.923973504475398,-9.643276915795449,207.99775937643764
38.663658285342066,-30.236677012536003,194.81365953154707
43.722009121141745,-17.49205675721924,-116.61774716773026
9.46950030535593,31.401442427559086,-146.15687010192445
19.752940215025234,2.86899256707993,37.64405414592994
6.589438634903364,15.006420107833527,-214.25452243737897
-66.0255398511832,13.811809650393576,599.5864455214885
13.195659202031322,-21.05841933835466,-73.39977703124526
5.986787696826543,1.099053853609835,324.17296682110566
29.336929759917428,-0.43794185245998507,-97.27180852190428
10.234757995640418,17.01717284221107,450.1968210703321
19.535927465226294,9.553257820044886,-167.80420594582662
51.56155305624022,30.152316668419918,-222.01959954762881
-5.893431344615543,-7.5528823375624645,-37.98450341208422
-14.350528959704555,2.851867520219951,100.62784543569137
25.22718817748537,20.52493816354074,-190.6347471659666
-28.877119722118255,36.65946413289749,88.34440502704169
13.74944324274325,-9.816580453923846,122.41786974540226
-8.59137220566954,19.5968136500228,-224.16842950604627
-8.025894865884824,-51.507263351190886,-274.6010369409497
20.986826003609472,-38.915827883052934,-202.83686845786832
-5.742733616334039,-38.93029711135892,255.57589741356963
23.073431696187345,-15.07645097954213,-657.2446852069693
-20.74482665466252,1.7018999903854377,0.4899407929552484
-19.019367839848826,29.398856180893098,-139.98992106409642
2.6119674125006687,-30.789078485891828,123.63085986431041
8.21507982570371,-12.3692315376713,7.1143147848603645
-22.507603989130885,-16.27730174101943,-224.0331816828717
8.391460398684925,1.6355659512843757,-99.50738513029233
-26.835844036198317,7.052722192565078,-153.55903675716453
6.6067788040011965,1.443282668073601,-134.34655353992892
-25.576758092050472,38.69313900166596,358.25051934054324
35.17733451606549,-13.044133822349783,80.43010675784275
7.816027582359789,10.434212109076293,-28.713383319600272
-8.257817722806818,-16.946688458618716,74.44492031428364
-25.621474312202537,-0.018450000605134916,460.23586901058553
-13.411592792962479,7.7827357300215745,493.80671058076234
12.605180136519795,16.21683341793052,31.18925139932142
33.701051744527476,-20.20020080857439,-33.68737655302521
-29.342866054491648,-15.501229709607014,-12.378988263429356
-9.443540692929943,-17.377099198523595,4.790091813827864
17.522946421188884,7.791478340237318,413.40432485889437
17.59758608009823,-3.4459806839032496,158.49458661967603
-2.8205828037092933,3.479618406931389,311.4554173715334
0.24514945446893138,-7.041266377233698,-272.88928703414706
-8.30834342229534,30.289910863875544,-114.16891993576279
-39.73654415731965,5.473981687636401,57.01207947895009
14.64364945433675,-16.05696826865592,-3.966731853610998
-15.352302830684447,-34.998885560118296,-15.362949276730507
-7.49168967397836,15.212118007678445,62.949393024831856
19.63208990385145,-50.66989781482959,-134.73227619787247
-41.30752251984461,-18.990862189096863,-31.407762018147956
0.29980007744515114,-7.165339660267823,13.97575438857113
-12.971525792332688,31.563293870372583,-168.17903709797469
9.986904516700365,15.399175669723187,70.85868728440974
-4.1320816284223785,-9.081429907648976,-238.09732939944286
-14.874770433637856,-2.3725953685338776,142.1443621351586
37.613905582449775,-6.799855594361751,142.55293665215655
2.596628842900862,3.5344705623378747,118.19171703509599
13.612583152081196,0.1935599077892478,-192.08122613684827
-15.440378830085066,-20.46391179730659,-112.75357003868541
11.758483948488244,8.913998712089597,-62.56244652683127
-8.582916484867,-8.511672919236199,141.8238984933256
-7.1520765944851785,30.295272045555745,-39.96429415589003
-8.51962577618003,21.084048840979275,-164.3310047548235
-21.704207826655306,15.237202755951833,40.62072993435783
22.197798007419284,-2.843672740995075,-41.77119333768016
-19.781351625752613,-0.9568222889870499,94.09386422018918
11.931152275638366,8.337871881801712,172.7860019875617
-18.029752191304404,3.99018629407185,-180.8409215825672
-8.549920235187653,12.610110819347451,261.2226787790887
7.930533300337224,33.14936725366442,-104.75972806449991
-5.549197883575118,27.823819512839854,95.22140724305102
-20.983795540253677,7.945993205007524,116.93215747642225
13.07959135351734,-20.75174918362937,-38.50941872602859
13.209559547549448,8.265502631556643,-184.0046204488351
1.2419954803723616,7.346476070539524,230.071178728381
2.7818547389034975,29.762164413529746,60.44566427314394
-29.34811747018268,-10.86160468420757,-108.85264800374061
6.902196087462215,30.565285157965512,-32.3739244114566
11.019664218037363,20.039424380080337,-141.24374683506713
-14.027455098191536,28.779204560645905,-319.0625405740735
-43.608762451148245,21.7452585821032,24.235375361370632
-27.23522534990771,18.284054636857316,-249.1036669440331
35.48165857259766,-4.413049010651545,-56.98897475995416
8.396028707655141,-30.89733062976711,-103.00258600012702
27.217358140557053,4.585068567532135,-14.126066171438127
7.420716124090111,-10.853283781810774,295.80395956376384
-27.507833210303865,2.4658702305241755,-483.04156418153707
-28.77797586919019,23.737276080289163,-242.91316010936217
-8.50058676432856,-5.624736926040327,115.93949146196675
-13.959365326748978,22.76962739107743,11.800515525789947
53.53195550932742,-15.237583545286466,-9.700129198786861
19.266339427612515,12.766214260904029,-226.84651591916906
-8.28350467355538,22.597762711346903,114.08547217391074
30.93315980491607,23.02178912282235,-135.2937478136161
14.919840847566167,-29.951755879369976,-18.20933236708644
39.57720266494435,11.696042865238903,-150.93169583498732
10.660055181302386,8.440450041871276,45.83136389523686
-6.191816850773051,-12.03241419309843,67.85053424926689
-40.99232847145548,6.019701647773681,314.5802068097644
-17.35926474645289,4.598232225622008,-149.074182878767
-11.136432591570685,-16.589593842982797,-4.395938610670474
-1.979209338676846,-7.938895260947138,31.369713305645025
26.998629317205864,-29.08079061240088,-43.90569122622861
25.677311112660817,-0.9320288497079925,-50.83144067982815
-8.73826477183021,-19.97916441387493,-533.8547863492117
5.350348855608348,32.88329577438105,-84.3650524943392
-0.022420071445073044,-30.805268892521372,185.18169487914076
-66.14873174467388,-19.42430797577767,-50.74596443308862
-8.9102802172794,18.718391896131305,42.509196660831826
-32.89586136533949,-19.46341322480614,4.866832140743915
-14.588105481856958,-21.51332647423699,287.866680051269
-5.2799179315833245,6.741693370989131,-177.09046679627465
6.994772887584309,-17.234893933728998,48.63447289482773
-16.038079523366815,-12.52270407791932,61.904024659175015
-23.560805637757966,1.6426040649376605,150.3266022041198
-16.89501127839941,-12.844211458393065,66.59340323742104
34.520291809727475,1.9672408068571803,-33.713692595622476
-33.443426955256754,-11.26410353807949,43.62911576064685
-8.115916501773988,30.667017997522894,323.6267866300242
-4.012419099359896,8.487934041620186,0.6417368310103839
4.828232321614324,12.536140020972471,83.92758851983912
-20.88486870200498,45.26087338526412,-77.6742017852666
11.945333316008496,10.096965313776193,-233.19973168134214
-29.062359409458168,16.33351901419755,-201.7503446658533
-22.98115485140417,40.83397131525616,176.40222715313828
-2.517975295237877,-3.709984095635261,57.68641540807479
-21.376885542346397,-47.85609145758917,-44.520447486308335
-25.223239757101297,-5.262779822130844,-92.44216070709382
17.04667829708506,7.417143452588306,323.06158954909245
-5.135289959177255,52.047058816116696,387.46155880858646
-14.682997314276363,-11.595006292381395,-37.2959661644714
-16.695119304502658,33.49023445838162,-93.0386025270635
2.5310351298061455,12.695072759859688,173.7528751728442
15.492076150339365,10.913884077800693,20.17695118469455
13.55800362915499,-11.261330965871231,43.818124806048615
-2.6049480087609806,-13.751265812730178,87.70421463782998
-11.225619563854485,21.233025674072145,-5.8447778993083475
13.370495251678381,1.474350928554092,158.24298732051932
20.34639923890101,7.423723408731904,-53.29578184241572
12.529474722062496,29.57804353265342,104.74335366173362
20.50060878899941,-0.8048178233517969,-414.01373124920855
27.876377914686785,29.861351372915244,-28.7194527091058
-1.1475918592252712,-0.7515437008657646,162.14967311104544
-9.77288523154549,2.1916630019252406,-253.0818355260654
24.413956173969318,13.95875253584987,-180.36027951342396
15.714039232032924,-26.01283013688942,99.46030982997763
6.521960513782908,-14.539607121541371,107.48164560979521
-7.7037596336282235,41.05839259945714,-502.5434512033818
20.768626526432886,-37.36792743560402,2.285021404985958
-26.012726681445344,6.193721052911877,48.65546070899631
-4.77044165153545,16.5556762790131,110.96768833048097
2.3699417481226956,44.70291509714005,210.52761954650617
31.719744450058855,25.234913403876085,-146.2121665713815
10.02996801093625,19.025365969343547,160.4646384622944
-2.8888081932083773,10.977236867436819,-109.16168450223655
8.422888526537342,8.205008753526409,11.23803354538056
1.1540326355535535,-5.331203043615439,-149.11350032924796
22.74551769981131,-6.538195293124134,239.79216278449906
-34.27176362734062,0.281517783742693,177.2198113535954
-1.2295015090555619,13.259636586462062,-178.16406325742196
5.575581327318282,5.806675689835153,-222.1493017854187
12.366798924755319,-29.960696065468092,112.25066318482861
31.503639298794788,-4.959211361016101,-132.3854974714663
-15.669179895611565,15.071703274939614,-330.148628985741
-5.93048372051781,-21.03304099689683,84.0186399106725
0.10074654223686529,-23.88050686038307,38.743883194252675
6.431966647334887,22.736454650226726,-154.53112826443382
-17.85716095020929,-5.432761392381212,-132.25060579943818
-13.7135648087645,-23.765524447927348,248.32505196235746
-17.86718069132816,-9.31260607265812,-172.17899712101504
20.394338864333523,1.1724652090684693,-119.94114792211079
-1.610621781628335,-47.44154353148555,-317.7293832434849
30.49686018284515,21.038318771071005,-86.31820654033162
20.190588950963857,0.5508246835043689,228.27748833009488
-38.92125695275165,-14.611236169948382,-24.589775676858167
8.60739204915437,19.074444909214584,-43.95814624622055
23.746191930282716,-10.151789017739254,-151.88701812088178
42.00674557140859,-27.4022895022803,1.339596374344612
43.980406178322,9.32959105502003,-293.11611406853063
-9.154721231968558,2.818103199026383,-126.80564827011925
-1.6220474547803685,-24.29704181380159,44.10395381377899
-19.03912008070107,-41.64209192844431,105.24591237530969
-33.98905429842439,-3.7590224792089773,-208.7092355329624
-7.8933665891953115,1.487933736259703,99.03369913138013
5.7927574959881305,-13.020044527036635,-245.01447798296334
16.200854433650445,-1.5228672182593648,-145.8158766739028
3.4321370379767666,24.079950896716838,97.69088738533937
-22.390653975813702,16.302415202095624,240.09422263060443
14.738041346342762,-30.859044004204254,-101.13543921375047
-2.1500854251843475,-23.417221215411104,83.7417088242804
-17.688411450455177,-12.016187579136675,172.83543342712977
-40.16981134126402,11.464849924670983,3.7048910812759646
-5.839801454574519,2.9127345111300547,-366.9524723769162
-4.473794919318444,-7.7509277498439255,-312.62311594356817
-16.258939062395676,-16.20825282652077,-10.490072108989231
12.025185210816772,-23.754172113089012,-47.16887768203477
5.130476029984408,-19.417999285158956,-397.0827027942105
-5.292642184855251,-13.257060623722545,-106.84228072881707
-36.225615866058575,16.042649052519945,-135.96427341551893
0.4171993231167619,10.351460902523407,-74.076361245316
-7.967191180131544,-9.86826622089582,-95.23561962043176
-6.803287762046732,14.800377438236794,138.36903213775503
19.33275460126876,-10.594621316671562,88.84449154732111
21.051929914672325,-19.890299855932877,-141.81819541766777
-9.79751376280962,-17.163592308762897,-362.09140121442465
8.977248389758865,-0.9894818237647371,23.016208397308688
24.650716351559552,-9.31088899409556,48.069472718973124
-11.76291721709465,-12.929980128133568,126.45656877087524
-1.8409398955205853,11.60167560478742,-283.21710901996613
-5.509425572757392,49.87199415265234,298.38922600230575
-24.96935387259323,21.347188982483374,-295.91599814096395
-9.935684431830548,22.767129511024127,99.43505041875804
-30.827128783630727,-10.460343111905399,26.153566675026482
-8.613864956670186,24.119153442042457,36.11316819886012
-39.03955600158783,11.161457264932231,-203.7180580010998
33.33558247589914,0.6295820920714006,157.0344154102944
1.0211591266294835,28.33883276256735,-59.166517918267246
-17.38680817322447,-17.274802396232904,-186.85113941896287
-19.099468285872074,-10.353545334558882,231.98979070095126
-8.498857985209497,-0.7320834142837982,-361.64369655546716
-35.17887635473085,25.812035548885248,120.39821136206825
-25.3635266923084,-28.687345854293,347.78783589732205
22.34613791490073,6.177113884846496,27.00876484246872
27.007813495259256,-17.74584981579753,127.8435709242072
-17.887497194750775,-18.52465781614983,-376.75495414301787
-2.4229981527457767,9.145744765940373,-249.48049620826785
-6.043168323704478,3.7032765787427735,134.4231480701711
-17.415364745395628,-22.06283959230654,214.67821509629601
-7.882284178057354,-7.474963398267159,211.64130393932282
41.045101352915374,-21.178337223336268,117.48389969302116
-24.81779695533429,-17.955481198316082,158.9126777633302
10.16473368284441,-4.762613287279629,77.49691350462915
-15.108182193706206,2.585683105389486,-330.4985630898105
-15.019970185352449,26.119108263678356,-14.521667704749516
10.021483414033197,45.575811730749685,-113.26020777519264
-15.033914058022704,-1.6881943052181287,82.00022804084995
-25.19838924198476,-14.157229262339811,78.50585911832681
4.581523566788071,-1.5963102965913945,127.0697666001604
3.7691835949928403,-18.594195059507296,26.735552053655788
-24.281245099477985,46.49158752965964,320.53442628875666
2.469098618374944,-22.569322422983614,262.0703755913302
-17.533838804779062,-9.401109334380397,15.626105886611635
-15.27089032324504,-29.057446125630936,250.53175877250266
-20.70336838508642,16.871236233927817,-127.82174709717503
-24.990868043096892,10.291236193855834,-416.9514550096853
3.733421163827151,-5.787408071452468,148.59051746309464
21.87219844539611,-26.392255389587955,-41.24163030522817
13.229479041574077,-2.9070390558456864,206.9927706925033
-4.811979254412799,-27.9949794357149,113.21748580316199
-11.015079671391577,13.95742502742943,246.2891462121603
-22.71868546875735,-7.131785789141799,-51.267495667992925
1.7667681504207589,24.55369334405658,-108.94912878360572
-0.4425268645842361,-32.61595053871727,126.94335321467342
19.716617290708335,-1.3957091601390381,203.69611328904747
-6.717140623973167,15.455796316172636,285.04239245224153
-7.8198876502573675,1.0876291879126856,88.23995527126114
31.639247490121555,-41.4753829478762,125.08479370082989
-19.673025981766166,11.417768754692851,-76.93577134914956
8.711488334203137,5.5237814450799085,95.58693929138616
-9.949026768972185,5.023955224495023,-94.09689192066062
5.871863489507661,-11.438509879224581,-37.52055860086166
19.577180247502927,-53.16706465560919,3.268351030813712
16.796053516855807,13.821629544519121,170.44740162116526
9.830789018767563,-18.777189007804857,-15.705706310624805
7.108004992255904,20.299655781785457,-16.753492384666867
-3.9047752151469806,-7.990459086649259,156.58859803888066
-3.9486489810661833,-13.268202720114486,113.46549641872328
-0.13573740452945743,7.9985951497916306,-315.78470206604544
-13.98866082041506,-10.987920033509424,-32.81964521185753
15.166053761866946,11.615717609388794,-156.62955600787325
20.23285698189003,11.738936371188737,9.426573867171939
10.67300122470796,-3.321905681139933,-340.62243774342187
-11.121803713307427,7.356295260060092,-425.3944345503747
-5.678895516602208,14.397359439701496,-244.41756698944513
17.817621944376288,46.30142088567446,269.1350624594136
12.801899015587628,6.199171534397748,-177.8043839326319
2.1832088556743057,35.43513051634994,352.86020961331303
-43.77115279189678,-39.640357912467024,0.6425973595957737
5.313038326115133,-20.439503005137727,-217.92157227378007
-18.174281873661098,-32.10410952639801,-442.2311153535238
26.140774388281656,-19.11972540146033,148.34394537555568
27.519087562367254,-8.919087627220193,129.7897976312248
3.2548240136443547,4.18520312554258,216.12796259108518
17.840214099776027,-7.336910730785208,369.37473972738525
32.98517192114063,1.8328549297557943,-210.13943445423038
32.45709786487996,-44.285106585345616,1.078082769543992
-8.137415459644492,6.8369926754885535,261.3952792532226
-8.02038615437164,-40.7526016262836,-149.07426799957622
-25.48000120769639,-14.117833784725395,-88.46353215220684
6.746274219432367,12.893346573908001,-92.48539917570142
-21.369926822020684,-1.341307545475741,119.5707545621479
26.002404245079333,-10.09773973765903,254.70776836231647
-6.360080795107618,-1.2183781141462822,-179.69530480638397
-4.952192288428229,-1.3017700155303529,309.21986490270206
-9.854961103214801,8.844074510884509,-387.2106887703947
-13.456523756101133,9.885485947361538,-251.64717971844516
8.813893147549523,23.43119409364777,211.42418970173665
0.17643500904885362,3.5794286172556324,224.2970197477302
29.60283618828869,-32.77831875791528,-122.09368718941181
17.678835254879864,-9.186573632881954,-245.17095413333212
17.105739858803076,49.63609259583899,-174.92401539039324
-0.9543402484139596,0.7254574672326768,-111.39757635217975
-11.939392706023417,5.678469937076511,-196.9576554292296
27.161946044354856,7.832841484885859,58.38988777182041
-4.590709806969561,-18.97890750178495,44.604760937150324
-5.063048183337009,17.04060033904628,-187.70127825582946
-14.364389811775254,10.736223995894003,319.2978735753442
20.407633130593112,38.344889921803976,195.36822408499245
3.617322736557806,-13.737855058363731,189.93180868348963
-19.74686491957586,13.21144745911891,-81.77015429845856
-9.560201948663536,-18.462022119260215,24.54203869914122
4.394906516634325,-4.267161105873099,261.09840286557574
-10.627125524201153,-17.026375219999817,293.38815187358426
-10.344125958457287,-34.68192889214203,28.829970126776228
14.16012316683242,-6.182983850126017,55.8846160150889
-28.125418326743272,-15.276579542959418,31.5427368327789
25.418526996439784,25.127992400863807,100.92339781443401
52.666351672654876,22.65314456702114,-223.70935463209344
-37.37217541297702,22.654470727101884,-15.102127015922989
-25.96997500458184,-12.54275792450385,156.75322827582247
-0.5556271088266571,-22.85778598514197,-89.90902035266136
-0.9010899596276889,1.8822978436817626,-524.3274884093736
7.103635272720336,15.76812987954887,450.3307093088368
-3.169553938492391,-31.331173180393336,-167.10203063463356
2.871474084734445,-0.5676321286190127,-56.15965345165023
-15.334832957104503,15.54967352721689,203.8372592144895
5.932090080192837,-21.183808283558186,-211.76114471306724
-13.812073406662693,12.554487114697801,-159.24843526253676
-3.294172018936526,-17.639242125121687,-212.112921033566
-14.572748515111321,11.037943757839734,-63.54116992905129
14.576491948982683,4.591344156440803,-49.344501446887314
14.193554437009801,12.567540753505913,-196.5680345497574
14.120887087001257,-5.222410540775991,-199.9865358999841
-40.022926372645614,-28.501687335303053,187.94285460128427
-27.70985494781542,29.23675988976157,274.1370640923615
12.820270522521067,8.254866374819006,-39.76122408187336
29.414946622855204,27.330623949765997,-170.89298561544598
-12.192828821496484,0.18665105501029264,-76.05764816978994
-28.506780452904227,20.58419772534013,-15.373397506179955
-13.313773522480199,23.619963491650466,247.06067783580104
-13.13588038183475,16.538899891070102,-25.522096350855584
1.8566307364856103,34.53944441587897,-92.46427337590562
-39.000174503884644,14.972786695735078,168.48010608935934
-15.819271895312442,-4.682291618927187,85.48751533081315
-15.831195913024615,-12.834045508297532,-464.7463980070812
-41.53701371785455,16.720021425104996,-99.98497090809293
26.289594361386783,-6.029336879241658,187.6606518677043
33.482678471286896,25.985747881123427,-330.29946852193234
1.6403804809304035,-1.7187598461966669,127.09952352487244
17.382541887982555,4.199319395037925,-119.40544523517181
-18.650728042281337,-20.435733220349658,-117.9666837985805
3.8156321878989936,-18.550546428990785,11.888688595455791
-23.58781171837726,14.747670029472895,143.51138484932736
0.08403012611380556,2.8698083188901253,270.3373014697882
-15.821230836272013,12.578842665469603,-94.01541581199159
4.324132486568769,31.082850328005748,246.26703488894844
-1.0792196193704504,-24.56140774927892,112.80240268158576
10.45951009296116,-9.358215174748006,-36.69631742279657
7.768434347196501,23.158836426686737,-228.66136550397042
12.04724063992044,1.366244203016298,-31.13055260792325
7.668293373170606,-23.803289343822733,65.96778768418
41.36217455609683,36.71869751433153,-126.32891653114302
8.103912382960898,13.787163270988769,-240.69483913867134
51.76127792275797,2.4952109202299346,-326.78203589412016
18.127331909501653,-36.75301247663822,-128.20389432631848
-12.423441070056105,3.407949715676776,-28.832746494052554
9.148583274238373,18.344047214848075,-21.253555896343038
14.47718507885268,-25.32736578762072,-100.28862546389806
3.288447413009301,5.4067147987957025,145.4516840572884
-33.58933529955647,32.74224385260547,-270.1456925514762
-23.374680863696156,-19.55536654915671,-94.96504781408113
8.208449901912621,34.481337882830914,-51.896426577247645
-3.4473467897416215,-9.988532724467806,42.64606780380828
33.11217612960328,-33.37912210539086,-289.1641482756128
-45.025851510337944,-19.09341713518096,-283.77959030174316
-7.2545279265000095,18.11212120661573,335.20746033379925
7.719477383984161,-10.480705784713901,64.74573877878171
-1.3761618857744926,-16.19270474415844,-135.02155754239152
-14.937865703891603,-13.423419389779607,-24.469764954480745
11.110332937296906,-3.345873236856687,-125.78534039759295
11.577292015437646,24.596768868705034,-217.27727214495232
31.545455929158148,17.713621760101596,54.23529930304789
16.752221352382353,-16.24674767488821,189.3271519868744
7.011349193740534,-5.07807277971915,-0.8250968029503885
-21.170153193347442,-18.07975274413106,107.33472073546211
3.5426111557034377,1.6019661131235328,374.8087469538982
50.906897217455594,30.657393560644252,-186.82809952341125
1.0373315133190761,-13.000702822171448,189.923003998796
-8.540658623412517,12.44628613403706,120.37698897155799
-38.399463597997865,-0.7535219082323635,-294.8912360488795
-60.743281157737655,11.75487302602905,-71.11041794044516
14.092594049720272,7.48227021700928,-217.81754621462193
3.335939329514119,-4.713304877090042,355.5992882389766
11.09808619920335,-1.3145477023900056,50.44498478878662
-18.09444169803162,-5.536189471446933,179.1668757560579
25.247386371535796,-9.901030577848482,138.99322014489454
-15.74760782832316,20.008270053474007,-412.6443539921086
6.946936940641587,1.9357561461800412,-190.61447856307015
9.031636757503515,-1.3557776937703305,-47.95293493198448
-34.39232049193818,14.090444540681112,-214.09545286083895
6.660138842304622,23.224145208134995,203.51135395133892
31.938170941521197,32.36664590695921,-213.72340359308313
-17.609907633022704,-21.972184757505637,-24.58839042284266
14.787774829888372,-9.422736824668625,82.51521866734926
14.52748154721845,-5.3488125047827815,-161.62681092469407
-5.846873560311609,-8.132930299976518,21.835166673625896
11.279953439624169,-35.99882713782033,-95.55661987760813
26.68495829752664,-3.9190272235460992,-110.4672758803408
13.103380170094447,13.669544584221853,216.2101490197304
-9.623272806594995,13.218604495190998,-160.42509815213427
49.77768785743368,-19.349386151393794,15.5029203188649
21.08029221090891,-6.1945810105210555,-370.6950145632397
31.980873293506043,3.9163148009398867,-298.41920681103466
12.781647031817737,-6.175262542445726,-48.046791018756984
-6.8809043355236446,-38.50483596801482,-75.07791792896398
-13.878080632651146,39.42839798681864,-96.2273226594795
-9.714295444062028,10.327426522054509,82.5782645198253
34.123390045692986,20.904888497313085,-164.33954144417007
-34.533790480202434,20.896425476476473,-70.25826374144651
16.544019038354143,3.3417533773400643,-204.9498902094899
8.562997022575292,-28.256417784250928,-67.87447681818728
21.277413310737685,-25.914417006930982,-52.5661606514657
3.9273521501799546,12.34425994263129,300.82314466442403
10.81905892236993,-3.2460132762239295,-37.380625125264054
6.277758091571112,3.3932658215067963,-87.13583905408436
-29.35475986216911,-5.665145011990913,167.3655816684659
8.426903154463202,-24.423821048320814,147.5208268521179
-27.76549431116203,48.83486949204138,273.29341454379596
-20.44098125485118,35.136879405300945,-222.6321990512498
7.311895440976008,31.12105135093497,-0.1541616589297632
26.403053745380088,0.09461988760588515,-157.43295072887074
4.633306727215245,-37.83999214965611,283.25755509521224
24.023859623018588,-18.67340471489755,-329.6562043026508
-0.5655361354026499,12.883583136898322,-21.385515704822218
26.79812795042001,20.861327993898065,-68.86354685279049
6.133945459666078,42.695409815234484,-528.6720211944719
4.875733248123437,-3.7654320041844818,33.186639138343075
15.780819047921014,-6.59205001893496,93.40883181442099
-3.696937321720079,-8.559120636497289,115.56823685538735
-20.962670497757138,34.18178317773915,175.3668368920099
-9.502842386880129,-17.021219818316247,-492.07586477087864
40.90843034427189,15.099625097833744,301.2879800163227
-24.34487851560018,-18.69636437280976,-226.94219601546294
-26.919452810919925,11.834662935950464,123.58149253084048
-7.335434791481491,-22.932939349223172,-34.34264351225906
15.708783481536074,-11.031844744228296,-44.448124706289235
-28.76998783241254,-16.708360353647784,96.89912509065654
-8.159972843181405,-8.95430354052878,-181.10361685889836
-10.960748959972408,-24.41294402161947,113.12558346264272
9.803714561789173,4.569415667798723,-75.06281591416383
-1.029333892279629,-28.72266109152452,-181.39272899043763
29.20428581876429,-8.639448440377954,-70.83672896437076
19.92931437796974,-26.34345243082564,13.183372326894423
-34.47350703205458,-22.46357495280833,407.512584322327
18.956179068206406,-11.208395129403133,-198.1503889850386
-4.702093989353079,-10.369526442581687,271.9833168804547
4.417814716050623,-5.145093987850898,-159.80386243337358
-22.680754205690068,4.77858844735988,208.49806003705822
-32.336567023755435,-6.362175549321102,-73.3517346511865
17.355122581676625,30.020629965819225,-11.611942910814694
3.0569514229620416,-12.06003956079623,-245.44168800258072
-2.0173363178915786,-10.746378713536666,402.9424181634771
-27.55480324169941,16.853038132890052,14.476571841383986
8.74337035673635,-0.2332300260049987,-16.90228661576459
30.765395475291733,14.375811217712155,-232.66632317114852
-4.426348860463051,3.3469068929947525,-51.77099034926474
-22.433256270085096,6.061664585390625,-221.0213412405717
-9.977614608020659,2.0295470873525954,220.3779512836767
-21.081359210504836,12.350383950841287,-124.32675311537041
-14.5817531813639,12.926839213872627,-99.45630972289099
-10.689920556185257,-3.9727284643340917,440.93905535145944
0.33015513861447293,-38.158766961638996,-73.7622636250594
-9.032095753437888,-15.184402291386066,19.67994345604229
9.404868663402462,5.009488972417452,291.0949832990613
-9.925148510194633,9.092750286187837,201.52098336757274
-2.2337993339495616,-5.665573956761982,167.72578270154648
-26.080294998940108,-21.70602033057724,-16.248572349087844
11.025183182068638,-28.018198959796976,91.27135925819496
25.52250339910749,-25.011488484632807,-296.8922593635632
22.31764120227748,1.6575667768873306,-65.76637672689189
7.9038256765945984,-16.9422584742817,-83.38178770236367
-9.346758493772569,-35.03791629430663,-180.12703386358723
26.86018671118379,7.546001929894076,-164.22414003914602
12.381019188470837,21.48724269755215,-128.9509647618308
4.26108199359836,-24.164042617263092,595.1613363257678
-7.485033012714812,22.211499264925628,-169.61943708433958
-6.254805328085551,20.609302794595585,298.3042908790332
19.823886848166442,-31.76831027733456,-89.44225438086787
-4.979308231324214,31.09270374742964,14.634874395293659
-4.517128335453863,-42.006544914550304,337.655892003814
9.666555150699805,1.7601906910276643,76.20486989012366
-52.59697365973712,-0.8107279976979482,88.74266695217621
-15.507300576322951,10.750200542683752,229.58205548588663
15.302138115621462,-16.285241919716654,314.3725512157686
26.473997291297074,5.014766454813295,-107.98533845507305
-2.238694623296397,5.6267153517665545,-40.63199417994639
-32.84627912153446,25.596570750369025,80.76985172402485
-27.08949545879266,8.936550942881098,-79.77268645882832
27.592998320188165,4.24990453925254,419.8464043482431
-1.6853881521885294,6.098715505646362,-104.1440422004235
4.6713989444080815,-18.943975376711258,192.3532442577074
53.404813614464864,-2.260673256274877,336.9166203774395
-13.30039240417517,-21.86985157250062,131.90909220445798
-19.236403599311902,10.20043665358767,249.6916782112706
18.036330080103717,14.968385911102063,68.49668409654687
25.67146329191474,-33.48248214181069,-30.84838349089007
-8.5715982980326,27.929451004789513,137.9051499357068
10.017730070001294,-12.940960459551455,82.51471124224577
-9.393637901116792,21.500160039693657,4.752306148108651
-10.299474036279063,10.959155159168992,-207.35925854472478
-22.163699091920314,-7.775460053396614,119.48402978616699
31.957873215488352,-3.7036634563297084,39.469151492582576
16.917242402798337,5.708270521040957,194.97105853353025
12.517398820453522,17.507125080633767,75.75220555931405
29.64360926885217,19.961639710516337,278.41576213902783
-18.98196346746705,46.76640771367842,-110.13116195169302
9.289565159983898,15.273830405703087,-154.66676626608262
14.330924901512116,0.6592470727082187,163.58641963991886
7.452329921311182,19.93855398532421,168.14346122004528
32.95297120983838,-27.09578228497454,-238.3042801118046
-0.8327552032355283,14.734836959922664,-156.30578718449428
-14.860823198707212,-10.284696372096384,-31.022553196776727
-1.639306752113099,9.863028851887147,-47.76844087161722
-5.034620650163989,-34.28802389956854,227.16364309704565
-6.232824447899677,-21.47240614947932,88.3327530349782
1.714384866054879,-25.38533567527898,-106.0304400612887
-3.2744685826166977,12.370752304831367,-87.61474858653501
-3.5146179545648337,-9.073041989409745,70.9125656249974
-1.3456742396859505,26.400331236439513,168.38157913171204
-17.082618751088916,-38.76819733661819,-112.18405168141862
3.931891233339173,-0.43788137678008454,-35.66185897657069
-5.606614119851839,65.82688010392397,78.57093272531995
-24.88389847209659,-32.46185069803323,-250.83018438373145
2.2177033902733396,-10.446758300260422,-34.92323797179802
-37.7788408321794,18.32096271367539,-196.67141467318848
-12.496812891885693,4.461938471279102,-110.97964752537193
-0.8845534264643997,-13.950348944361936,22.56504922735696
6.203987129576529,-31.979395409870254,122.08666540724143
-19.66154032690011,11.1705280183601,29.599445376809257
-15.474471948177818,16.218959926898016,79.21304198302603
6.498072256459001,5.367247710544671,197.57638950468228
-7.982663009192592,20.31974117896988,-23.004618324940672
-24.2934812423887,-3.8324115327313244,72.26142963218352
-22.03555217966858,-21.279376283832597,-157.11726878593782
-12.128560928969598,-20.975487771185847,-136.57895900790683
17.426972376036375,-23.97682369283007,89.4945532247066
-2.450105611687067,30.088501291504123,-261.0625639111732
25.709885933218985,17.78666387280881,-198.90740746975234
-23.487828762411837,-49.11439226605513,-147.20067029367786
-13.970834324683379,-25.45080730521142,9.051158071304993
-0.9609693247025398,2.9374080013582664,-121.94553229535661
0.13817415876673086,23.800663358619822,-74.13962870202668
16.81433414214156,1.765279527978533,-163.81360969862072
2.3244759512591022,-8.04681231910757,46.41749961481125
-37.12104948409603,0.3179713202352086,143.5631143654516
-10.576273663076325,10.847673057086958,-42.147264307242395
24.026413311429692,-21.547992579302093,211.65562527447898
-0.6639984283043352,-22.7512747395545,-89.02365372928848
-12.066440406271415,15.895087458133936,201.05069813773125
36.17140176941427,27.893698113421795,-151.12892969191216
-23.560052215226154,14.073399665821833,118.83785006277974
-24.524464222941013,-6.6942441509628905,-196.57701305839265
-4.4533357728242144,-35.682135322085465,-317.1524017926054
-32.375868717382275,-29.376495009529876,-197.45661707041026
25.655070760910345,10.409113698083159,-13.163807470889095
-28.287248385758108,6.154166680928334,-196.07017103608283
6.817284643995539,-40.81266510782669,112.3544133607705
9.376017693321437,44.73551360263841,25.57602040749277
-1.380314754807746,4.672725062456417,-87.54371986181452
-3.193315544443763,7.691580657174154,31.396464327593144
-28.386388896356053,-33.94428874956627,-44.71955272055132
-20.67331044549266,9.44917263143736,248.9525296878616
17.812237508577937,1.8644696864303492,-159.4142505504482
-1.5127395186731678,-13.093401812246377,4.861567377421683
1.1924430107856372,-39.686289640325214,25.385535103365992
18.832112321540894,11.478431060402636,-80.98158669688716
13.430299992247521,21.455476032036653,270.6000524273085
9.017235764044973,13.845052525845073,293.4235379402886
-14.849457253392696,23.036679125459475,159.88155370384936
-43.951328791584785,-22.06798548308351,-86.23925919942211
-3.7360787249756595,-7.453644782664387,-179.88769462555607
15.633130707889872,-25.737200028846093,283.1492029527768
20.40775214191429,17.750675711136335,253.97063921975575
-12.61151986595727,-1.9846411484280166,-440.90739425122365
-31.388475181723372,14.739946772412312,-175.66073344435247
1.3408077749370024,-30.607893252707626,32.737230590538594
-20.679212291860406,-11.828757861987334,-481.5945389339075
-3.4575764431096143,-13.22261909855228,-347.76371124126564
10.8187785624583,-13.820445777269619,198.76923179064158
8.578261237055763,27.532077056951568,65.60934515107958
-11.363405362315806,8.106160277301946,-44.968584163462786
11.88259823540019,3.679772638047767,-296.0606223197782
-12.825777527223718,-8.093015089949851,-100.88278612741588
-21.433497839368243,-38.65719859375667,-40.84183812661131
5.719389359599334,7.553112766444535,17.319441725033197
-2.255448898719092,-8.858641687259802,12.975084559497802
32.08893323485182,-19.824703445310124,-137.39962152186882
-28.827517585054405,11.891058853973131,-54.08538247966687
13.585168977362867,-16.29612959486957,343.14019258218826
-16.741799668172508,-39.110853744563684,-172.03409969427835
-5.24076487957603,-27.49394397826287,-158.0215066948238
6.544875282686901,-13.690155578587932,-89.77178313806328
13.206143082314167,-23.664713285591258,190.615167283575
-6.843366593044785,14.825898240305815,-67.27873333879089
-2.110777187276045,-6.468828930259617,-366.33372668254975
14.805251463524549,15.484463846245614,133.64938586279538
12.18848630720295,11.383428720447966,309.9422106113049
-4.637391898980331,-11.846765579667363,183.5004285286621
15.648946236280725,49.347987056538194,-109.83948483664142
-6.424696045684088,-10.71705727686014,300.7078187319301
4.3701603370291675,25.07859504903108,74.83815884501482
-20.572339800999508,9.981934935874678,-81.20892996882534
18.62544978913181,-8.042847573540508,-58.292733745406345
22.245067513648532,-25.89403508641997,-221.27041956002753
80.34079527117427,-12.657184585836154,-65.80590249311838
-0.7083634729721294,1.1315980826996876,187.44261698365463
5.459828963183549,31.83671208359581,130.56321350909855
-6.748522518490053,26.539647796896727,5.777146941953671
-10.213254501804347,-5.825574994036895,225.08051641475012
6.08799295108124,42.240567702062165,-25.601581839073685
-2.669424093011647,-22.694938087984195,-61.56841632809308
-0.9502714727897505,8.515866581914828,378.00342761385167
-50.740672074294494,10.000421224282999,-274.17192898226915
-16.553266470846612,12.765477037554708,114.43787245479749
13.406837583039753,-34.94164926804342,92.35512993286807
15.323867719178804,-14.645248908437306,-204.1505997357108
-6.2318114709359005,-19.686230482728014,-70.43422718912062
13.54314086304987,2.511345857362737,-99.625681958129
5.651821960186172,13.656632343162102,106.79936436926201
-30.015400709847842,-6.6324781966426585,209.6112623049816
18.79411166774135,-4.776961587756139,34.166094879622406
-0.13708094691075814,0.5143392557637083,1.669601109739688
-18.553143757623126,6.378842645500686,141.20833574180668
-0.29600145215185536,-40.654222425260194,-263.36946295972007
14.990799459870047,-29.392857116646553,10.410961024183305
-31.189518487086904,16.244607568351505,-114.97176851989718
24.126253932593915,-37.83181710579971,-54.774533510232914
-7.11470459289406,0.2508680899325944,399.053482880384
10.00351931040285,-11.003353499249846,-166.14660765206952
-4.020417190112624,34.89543476323831,126.29132363979198
-1.4739664387744076,-14.587476674153372,106.11134029090157
-33.154061033513514,-1.0388935772357426,-226.91086860369174
55.95310214353538,29.425078082841296,-323.2605735881741
19.347434245420445,46.19090631603295,-209.9836015543408
-13.77677219601737,-28.388426122835124,170.21357645501348
-21.555581435368737,16.431124840143813,38.555327381719
-18.646924232015948,-20.545719264420622,260.51546098276623
-18.330209795377627,-11.718668064067826,-92.55717997074937
4.76152348968575,12.83359239217852,-76.36113298545553
34.54208614589527,-10.170599098148934,-279.87230614966546
-5.550143030554413,45.7232462796412,134.13688694472648
-5.5537634454185945,-42.13938195604487,-103.87282129336897
15.069064376683677,23.80301893578926,477.85349444581925
5.489446447215088,-6.5297416414356215,363.344993369004
60.892758377022915,-29.031630236448976,34.624054679740226
-9.900080237621507,40.55750830767683,-338.26115146812964
14.409035397184862,-0.5468376688537291,105.12420567633993
19.032359875843646,-11.020698496052784,411.8809903888706
14.055279876382132,-15.110090265252072,327.23765901264375
32.63608553009865,-3.9376578383181284,-334.6145847208155
-13.396111626801721,21.606438977198337,42.29463163037799
2.228102797182406,31.00035920291672,227.4973617044206
11.434473616693682,-5.844368990796481,379.65632332074165
-30.59738234398811,-31.383308041656406,-16.63578280262461
21.98519364039634,-0.14117594186206428,-490.4816076186496
-2.1469956141891493,-21.785195867002052,331.0296809554864
27.085606486240184,6.829253279106943,195.65430102674398
-3.291153098634578,-16.247072792850652,-100.85366772119764
42.057859894996795,-28.83342748178077,469.900202797839
4.503965280721937,-12.442588412443293,317.2102643701383
48.88747393348961,24.569660404935128,66.31819820269628
7.8560236239266334,-14.382182724507345,-11.25054564420329
7.881337856141608,-5.83140965203441,10.629821273653473
-8.841106410157852,15.7438819653154,259.0195458325543
20.26283845805152,-24.322182202248047,-44.781169871207354
23.851885691309242,-4.982498980892445,225.74735298273276
17.059772189662553,-10.032713646684686,-219.13255195430156
13.2586997581409,17.956481864119336,75.46912289416802
9.850568028164693,28.848256845613513,-164.6862366331041
-21.155227656515393,17.634028641401915,-97.34195346774491
-1.4842605204398485,7.09734790117318,12.428700814959758
19.198609061177642,-0.8195141634330172,309.43233911812695
-18.76869053195198,-19.403697478805555,-117.38250726332669
-5.1785124625573085,-21.118686337460947,-297.16849720574197
-5.941211877146323,21.140647697273348,-74.01071236748432
12.673375141978344,57.73802195678263,-256.81306884870605
-5.7243325504457605,-10.505777494934229,-126.32524949269455
-43.92093544555876,16.235222288771375,-35.06416512107876
25.094292951590653,3.6010378879613354,-148.054433201654
-0.9028376428029455,-13.800355754483107,273.73028646763663
3.339789453735416,-18.206865350317674,209.3803407371645
9.86731482627683,22.868841333536317,118.1574478046352
24.49029928031075,26.86953004255121,-20.85541304211604
2.9755564245866557,-4.947051971889472,76.11269504746309
-15.976173104094624,0.8865348889910354,-242.23935857243262
3.6904507324518914,-18.605243313169197,-512.8268671482825
11.012778850961043,17.14480644638501,-35.34715127142708
19.125105876671213,11.935561013738557,-90.49069676262526
11.274120396762687,82.12314834947108,89.04174685012951
-42.05032829941422,0.12852580336389618,95.87353801222127
-1.6916624495405888,16.422388473777712,-132.35965680773302
1.4509541323435857,-38.904556596861795,-161.54806117254435
27.104834831597046,34.981759457868165,-69.69644158518162
-26.81358393131966,22.571719409726345,-201.23013717893133
-19.92471493888726,-6.565310798500511,-395.4228958781065
27.125547693343876,-1.154020183228908,82.8627715217434
-8.306349721881535,17.924892197176526,-184.63267072987423
-4.6575211918042,-8.845925849493453,-8.479753196389145
7.402283919932373,15.036672249098865,211.89614076303346
-25.031187986750197,17.427538088111255,-25.409825709287933
15.487458126523737,-4.406146960540743,136.61861393349363
-12.659836298620204,-13.552142036482467,134.84378844123518
13.578344519011543,-22.768871976987807,50.11569324487068
0.792778374708014,5.115629306292897,103.10692205631553
-5.117741033641044,21.173593340445997,-54.86925180076929
14.869516065170583,-24.63767575406569,-186.7710059184031
-12.561530955855462,12.930456873033854,75.18912921965547
