-0.32827061933463186,-0.2285572148974021,0.22496057627247593
-0.32755060608343833,-0.22958789265632498,0.25989634932390815
-0.3268273568047845,-0.23061630220779736,0.14254391549137901
-0.3261008786439922,-0.23164243339167437,0.23875966698376644
-0.3253711787782832,-0.23266627607032025,0.22669401363251962
-0.3246382644167076,-0.23368782012870892,0.18424363422902418
-0.32390214280007357,-0.2347070554745229,0.3262589930693319
-0.3231628212008746,-0.23572397203825407,0.19341919431476864
-0.32242030692321877,-0.23673855977330227,0.3225843149482343
-0.32167460730275627,-0.237750808656075,0.2282211977640352
-0.32092572970660627,-0.23876070868608662,0.2678017885689994
-0.32017368153328507,-0.23976824988605677,0.18486538901256888
-0.3194184702126327,-0.24077342230200888,0.1453620082188942
-0.31866010320573895,-0.24177621600336918,0.17776434108258582
-0.3178985880048706,-0.2427766210830639,0.13665621007566195
-0.3171339321333965,-0.24377462765761795,0.18352874504366268
-0.3163661431457141,-0.24477022586725206,0.16721728468919067
-0.31559522862717415,-0.24576340587598003,0.24150552642675976
-0.31482119619400595,-0.24675415787170685,0.0599462139979772
-0.31404405349324244,-0.24774247206632435,0.16283207465675748
-0.3132638082026439,-0.24872833869580915,0.2455002276960197
-0.31248046803062296,-0.24971174802031812,0.20338854530010933
-0.311694040716168,-0.25069269032428493,0.14661604120429966
-0.3109045340287665,-0.25167115591651656,0.11511322646499998
-0.31011195576832873,-0.2526471351302883,0.14727182294906876
-0.3093163137651106,-0.2536206183234393,0.20043354996980212
-0.3085176158796357,-0.25459159587846875,0.16987264216645917
-0.30771587000261885,-0.25556005820262956,0.15095583585273098
-0.3069110840548866,-0.2565259957280243,0.17394288844503147
-0.3061032659873005,-0.25748939891169886,0.257137919785414
-0.30529242378067756,-0.2584502582357372,0.17788200319926195
-0.30447856544571145,-0.2594085642073554,0.22279219533454409
-0.30366169902289414,-0.26036430735899513,0.15706847744100721
-0.30284183258243536,-0.26131747824841756,0.21442370044884357
-0.3020189742241839,-0.2622680674587964,0.15537858255469206
-0.3011931320775469,-0.26321606559881067,0.19349301002374084
-0.30036431430140964,-0.26416146330273843,0.13917072073428385
-0.2995325290840553,-0.2651042512305481,0.1851032027231448
-0.2986977846430838,-0.26604442006799156,0.30475660655496184
-0.2978600892253303,-0.26698196052669604,0.2042880944921999
-0.2970194511067846,-0.2679168633442554,0.18742348333634767
-0.2961758785925082,-0.2688491192843225,0.17586636264911754
-0.2953293800165534,-0.26977871913669954,0.10438357408505873
-0.29447996374188035,-0.2707056537174295,0.24736297540266644
-0.2936276381602742,-0.27162991386888724,0.13267112652383528
-0.292772411692263,-0.27255149045986904,0.05787675338902418
-0.29191429278703357,-0.27347037438568383,0.1915703589216831
-0.29105328992234875,-0.27438655656824223,0.1295703045004231
-0.2901894116044636,-0.27530002795614683,0.21609235120300171
-0.2893226663680405,-0.2762107795247816,0.2674348355080048
-0.28845306277606597,-0.2771188022764008,0.12519179699828087
-0.2875806094197657,-0.2780240872402177,0.24677743836584776
-0.28670531491851897,-0.27892662547249386,0.1855544835804973
-0.28582718791977474,-0.2798264080566268,0.09089919398253826
-0.2849462370989649,-0.2807234261032387,0.10306372647319989
-0.2840624711594197,-0.2816176707502636,0.2835549825160055
-0.2831758988322812,-0.28250913316303533,0.16308936686573014
-0.28228652887641686,-0.2833978045343751,0.2478849210627829
-0.2813943700783336,-0.2842836760846775,0.19607081356311917
-0.28049943125209026,-0.28516673906199846,0.20273291387675288
-0.279601721239211,-0.28604698474214085,0.2748145856736566
-0.27870124890859815,-0.28692440442874084,0.1896955542923021
-0.2777980231564438,-0.2877989894533543,0.1829026393613553
-0.2768920529061427,-0.28867073117554176,0.1945680565440376
-0.27598334710820394,-0.289539620982954,0.21326901478724414
-0.2750719147401618,-0.2904056502914177,0.2485565625439315
-0.2741577648064883,-0.29126881054501913,0.183490959054985
-0.2732409063385031,-0.2921290932161899,0.2716520746740664
-0.272321348394285,-0.2929864898057903,0.2620803433977329
-0.2713991000585823,-0.2938409918431934,0.233707216773438
-0.27047417044272243,-0.29469259088636945,0.2843371895805473
-0.26954656868452326,-0.2955412785219682,0.22601575269767415
-0.2686163039482012,-0.29638704636540314,0.18491056215011606
-0.2676833854242819,-0.2972298860609332,0.11993364382948025
-0.2667478223295093,-0.2980697892817462,0.23943540613418943
-0.26580962390675356,-0.2989067477300408,0.14257864220750416
-0.26486879942492136,-0.29974075313710813,0.23082927409614903
-0.26392535817886265,-0.3005717972634144,0.16278530335399097
-0.26297930948928017,-0.3013998718986812,0.30303791594686447
-0.26203066270263675,-0.30222496886196715,0.19054589781710166
-0.2610794271910628,-0.3030470800017491,0.3133881515393647
-0.2601256123522644,-0.3038661971960019,0.13920752563100297
-0.2591692276094293,-0.30468231235227927,0.1625362354221219
-0.2582102824111356,-0.3054954174077929,0.23310980548955515
-0.2572487862312564,-0.3063055043294935,0.24610233738573653
-0.2562847485688674,-0.3071125651141491,0.1847372450765505
-0.2553181789481533,-0.30791659178842373,0.1696791311719956
-0.2543490869183127,-0.3087175764089577,0.2750130703903036
-0.2533774820534644,-0.3095155110624448,0.15204127441798715
-0.2524033739525523,-0.3103103878657111,0.24038123937995376
-0.251426772239252,-0.3111021989657921,0.20779009953252103
-0.25044768656187383,-0.3118909365400114,0.15850019214185124
-0.2494661265932682,-0.3126765927960574,0.17940866980000494
-0.24848210203073112,-0.31345915997205975,0.1909098371097544
-0.24749562259590674,-0.3142386303366671,0.2553584970600452
-0.246506698034692,-0.31501499618912304,0.18355769255589427
-0.2455153381171412,-0.3157882498593414,0.17784996198833503
-0.2445215526373679,-0.3165583837079835,0.15424209355571367
-0.24352535141344897,-0.31732539012653277,0.24661407372548183
-0.2425267442873282,-0.3180892615373693,0.14916672324400285
-0.24152574112471786,-0.31884999039384615,0.24057017376422124
-0.2405223518150019,-0.3196075691803629,0.29500268946343255
-0.2395165862711379,-0.3203619904124404,0.17278470930318984
-0.23850845442956026,-0.32111324663679386,0.1124811427562714
-0.23749796625008024,-0.32186133043140763,0.1631988075022758
-0.2364851317157886,-0.32260623440560804,0.1379034568721384
-0.23546996083295757,-0.3233479512001359,0.14729477734210664
-0.23445246363094052,-0.32408647348722,0.15068560683548424
-0.2334326501620735,-0.3248217939706494,0.23901027732165891
-0.23241053050157712,-0.3255539053858447,0.21994118307825566
-0.23138611474745488,-0.3262828004999308,0.19990638555079926
-0.23035941302039487,-0.32700847211180806,0.2502811997438949
-0.22933043546366907,-0.32773091305222324,0.247834685697221
-0.22829919224303438,-0.32845011618384007,0.16730891901234848
-0.2272656935466303,-0.3291660744013106,0.23931239060069534
-0.2262299495848793,-0.32987878063134496,0.2685952354280454
-0.22519197059038676,-0.3305882278327805,0.21997375924589396
-0.2241517668178381,-0.3312944089966529,0.16672888139778158
-0.22310934854389852,-0.33199731714626435,0.2029101462429213
-0.222064726067112,-0.33269694533725214,0.1827713601848186
-0.22101790970779805,-0.3333932866576585,0.12597107299969001
-0.2199689098079507,-0.3340863342279981,0.11085661792077656
-0.218917736731137,-0.3347760812013257,0.20355567119110468
-0.217864400862393,-0.3354625207633046,0.2559385814461447
-0.2168089126081222,-0.33614564613227355,0.185685865009579
-0.2157512823959924,-0.33682545055931384,0.19524090306571065
-0.21469152067483355,-0.3375019273283155,0.20862826378641985
-0.21362963791453293,-0.3381750697560445,0.25261123870927693
-0.21256564460593266,-0.33884487119220846,0.17491208562572197
-0.21149955126072684,-0.3395113250195216,0.1372075159277505
-0.2104313684113558,-0.34017442465377123,0.179492038687342
-0.20936110661090312,-0.3408341635438825,0.22547150746703684
-0.20828877643299237,-0.34149053517198236,0.296324594095011
-0.20721438847168058,-0.34214353305346495,0.13198176338505432
-0.20613795334135454,-0.34279315073705535,0.133049819110721
-0.20505948167662702,-0.34343938180487266,0.2491224073754707
-0.20397898413222962,-0.3440822198724945,0.2537456162680396
-0.20289647138290903,-0.3447216585890193,0.2000229816559187
-0.20181195412332073,-0.34535769163712965,0.14190558587213692
-0.2007254430679246,-0.3459903127331535,0.26719073688764905
-0.19963694895087727,-0.346619515627128,0.18220948953681526
-0.198546482525927,-0.3472452941028601,0.30547161526743444
-0.19745405456630827,-0.3478676419779876,0.17372058789492806
-0.19635967586463365,-0.34848655310404164,0.15882478529722607
-0.19526335723278793,-0.34910202136650637,0.160650053334086
-0.1941651095018224,-0.3497140406848792,0.14307395905762677
-0.1930649435218458,-0.3503226050127318,0.12914913841136608
-0.1919628701619183,-0.3509277083377693,0.16987339809679886
-0.1908589003099448,-0.35152934468188934,0.2854361965638492
-0.1897530448725656,-0.3521275081012418,0.12833334507046246
-0.18864531477505,-0.3527221926862872,0.24352038806483722
-0.1875357209611876,-0.35331339256185523,0.140493491359669
-0.18642427439318138,-0.35390110188720214,0.3368355927089892
-0.18531098605153776,-0.3544853148560696,0.19611370563139205
-0.18419586693495885,-0.3550660256967413,0.1669840595023769
-0.18307892806023474,-0.3556432286720997,0.24550039043741229
-0.18196018046213294,-0.35621691807968364,0.16397190540087814
-0.18083963519329013,-0.356787088251744,0.13358308704409444
-0.17971730332410396,-0.3573537335552996,0.14949976993419203
-0.17859319594262182,-0.3579168483921933,0.18542716804061646
-0.17746732415443225,-0.35847642719914746,0.2512423264238197
-0.17633969908255615,-0.3590324644478178,0.25765256611318565
-0.17521033186733492,-0.35958495464484935,0.3064896625731991
-0.17407923366632183,-0.36013389233193,0.15024969497649968
-0.17294641565417096,-0.36067927208584466,0.23957381118329618
-0.17181188902252828,-0.3612210885185283,0.26919955393544326
-0.170675664979919,-0.3617593362771201,0.2385664949641922
-0.16953775475163785,-0.36229401004401596,0.09902399359833014
-0.16839816957963918,-0.36282510453692024,0.22515509810198372
-0.16725692072242393,-0.36335261450889933,0.2721911787205363
-0.16611401945492937,-0.36387653474843273,0.11883232274662786
-0.16496947706841866,-0.36439686007946404,0.2672050451020135
-0.16382330487036742,-0.36491358536145335,0.2282904474816686
-0.1626755141843529,-0.365426705489427,0.22011509520382855
-0.16152611634994318,-0.3659362153940282,0.23195978024272507
-0.16037512272258314,-0.36644211004156774,0.1812396451773331
-0.15922254467348354,-0.36694438443407273,0.205528895251535
-0.1580683935895081,-0.367443033609337,0.2505477717572485
-0.15691268087306232,-0.36793805264096907,0.19637713975909216
-0.15575541794197867,-0.36842943663844174,0.17187416353412618
-0.15459661622940513,-0.3689171807471401,0.19704912564807572
-0.15343628718369282,-0.369401280148409,0.21645116753102692
-0.15227444226828124,-0.3698817300596015,0.16893966950426847
-0.15111109296158592,-0.37035852573412553,0.1979838683978144
-0.14994625075688583,-0.3708316624614909,0.16941514956199263
-0.14877992716220814,-0.37130113556735594,0.2652351383462652
-0.14761213370021528,-0.3717669404135739,0.16976745207218918
-0.14644288190809215,-0.3722290723982378,0.21827098952743837
-0.1452721833374304,-0.3726875269557274,0.20284948822679172
-0.14410004955411512,-0.373142299556753,0.24759824945899095
-0.1429264921382105,-0.373593385708401,0.24625485462061017
-0.14175152268384625,-0.3740407809541776,0.21179307984243828
-0.14057515279910135,-0.3744844808740535,0.2791975285150802
-0.13939739410589042,-0.3749244810845073,0.22307120089845417
-0.13821825823984957,-0.37536077723856853,0.19006517498530595
-0.13703775685021977,-0.3757933650258611,0.11717031428159985
-0.13585590159973265,-0.37622224017264555,0.1696534455276142
-0.1346727041644962,-0.3766473984418611,0.11820221422837836
-0.13348817623387757,-0.37706883563316823,0.2529379985280853
-0.13230232951038842,-0.37748654758298955,0.22951530025241892
-0.1311151757095705,-0.37790053016455066,0.12394378675773049
-0.12992672655987766,-0.37831077928792195,0.19422111149780216
-0.12873699380256157,-0.3787172909000581,0.12359255333836465
-0.12754598919155485,-0.37912006098483864,0.18612611440262847
-0.1263537244933564,-0.3795190855631071,0.21564679406047088
-0.12516021148691311,-0.37991436069271084,0.2603230548130788
-0.12396546196350455,-0.3803058824685399,0.2092434514705615
-0.12276948772662732,-0.38069364702256525,0.24237170273931674
-0.12157230059187665,-0.3810776505238773,0.10532517590773026
-0.12037391238683047,-0.381457889178724,0.2011820171509902
-0.11917433495093371,-0.3818343592305473,0.19855801370740467
-0.11797358013537927,-0.3822070569600217,0.22562366978337825
-0.11677165980299192,-0.38257597868508986,0.16284763886843198
-0.11556858582811214,-0.3829411207609994,0.2549089740298708
-0.11436437009647678,-0.38330247958033886,0.12500436701937806
-0.11315902450510301,-0.38366005157307365,0.27101833997719377
-0.11195256096217002,-0.3840138332065808,0.2237407341362427
-0.11074499138690282,-0.3843638209856839,0.177565142714778
-0.10953632770945246,-0.3847100114526882,0.22986862315193687
-0.10832658187077907,-0.38505240118741424,0.1997844612432028
-0.107115765822535,-0.3853909868072317,0.2720529882641559
-0.10590389152694475,-0.3857257649670931,0.22183772661448925
-0.1046909709566877,-0.3860567323595665,0.254786165808068
-0.10347701609478087,-0.3863838857148684,0.22692722162495851
-0.10226203893445854,-0.3867072218008959,0.2264541032059987
-0.10104605147905475,-0.387026737423259,0.12781158256388553
-0.09982906574188578,-0.38734242942531133,0.22311600223037573
-0.09861109374612936,-0.3876542946881823,0.2074633620808632
-0.09739214752470726,-0.3879623301308075,0.27015119484675787
-0.09617223912016576,-0.38826653270995903,0.3046262809585459
-0.09495138058455804,-0.3885668994202754,0.2047928113612084
-0.09372958397932304,-0.3888634272942919,0.1793461291489097
-0.09250686137516734,-0.38915611340246936,0.28385513588952965
-0.09128322485194688,-0.38944495485322306,0.21830428782622843
-0.0900586864985457,-0.3897299487929516,0.2295950026656197
-0.08883325841275735,-0.39001109240606513,0.26186881403040807
-0.0876069527011666,-0.3902883829150127,0.19600845999406288
-0.08637978147902758,-0.39056181758031017,0.22502147440153886
-0.08515175687014524,-0.39083139370056713,0.16176026603698487
-0.0839228910067566,-0.39109710861251334,0.18838381340634694
-0.08269319602940878,-0.39135895969102563,0.18246954695028594
-0.08146268408684042,-0.39161694434915306,0.22543656780231758
-0.08023136733586103,-0.39187106003814337,0.16313179024888003
-0.07899925794123228,-0.3921213042474671,0.18804256669578043
-0.07776636807554564,-0.39236767450484344,0.20820251763858008
-0.07653270991910324,-0.39261016837626406,0.24869382344919297
-0.07529829565979859,-0.39284878346601704,0.2658996353107824
-0.07406313749299401,-0.39308351741671116,0.17733949476538277
-0.07282724762140126,-0.39331436790929863,0.3184265862021466
-0.07159063825496201,-0.39354133266309804,0.1746004391723809
-0.07035332161072509,-0.39376440943581725,0.23072359538351414
-0.06911530991272723,-0.3939835960235752,0.189194557018179
-0.06787661539187159,-0.3941988902609239,0.1763424160137637
-0.06663725028580825,-0.3944102900208697,0.12258871184886727
-0.06539722683881133,-0.39461779321489426,0.198156311788123
-0.064156557301659,-0.3948213977929755,0.12232622632073559
-0.06291525393151348,-0.3950211017436071,0.1780106877059196
-0.06167332899179791,-0.39521690309381946,0.2631728398225236
-0.06043079475207618,-0.39540879990919836,0.13410594591973557
-0.059187663487932834,-0.3955967902939042,0.2242458955878197
-0.05794394748084961,-0.39578087239069115,0.240310001386253
-0.05669965901808521,-0.39596104438092505,0.2269442055557991
-0.05545481039255499,-0.3961373044846014,0.17835469056073994
-0.054209413902707296,-0.3963096509603633,0.2064353221106524
-0.052963481852403474,-0.3964780821055183,0.20671966652451534
-0.05171702655079559,-0.3966425962560556,0.28299926331963643
-0.05047006031220618,-0.3968031917866618,0.1800746043785673
-0.04922259545600452,-0.3969598671107377,0.16839086786885743
-0.047974644306485986,-0.39711262068041375,0.2361655104129833
-0.046726219192751314,-0.397261450986565,0.21056356360658762
-0.0454773324485827,-0.39740635655882645,0.18374233629978087
-0.044227996412323,-0.39754733596560743,0.25974513397732657
-0.042978223426754926,-0.39768438781410564,0.05310925338550504
-0.041728025838976925,-0.3978175107503209,0.15760915963502803
-0.04047741600028232,-0.3979467034590689,0.21750619548502456
-0.03922640626603828,-0.3980719646639936,0.17311945257849215
-0.037975008995561714,-0.39819329312758023,0.2911950861904979
-0.0367232365519985,-0.39831068765116756,0.15522441862193392
-0.03547110130220071,-0.3984241470749596,0.18322376335943352
-0.034218615616605774,-0.3985336702780369,0.22116664626511284
-0.032965791869112214,-0.3986392561783678,0.15068513963545105
-0.03171264243695841,-0.3987409037328195,0.10684579249058236
-0.030459179700601403,-0.3988386119371675,0.23142916596012375
-0.029205416043592444,-0.39893237982610624,0.1247277523542811
-0.027951363852455724,-0.39902220647325837,0.19386404552641917
-0.02669703551656707,-0.39910809099118394,0.20660569996947745
-0.0254424434280294,-0.3991900325313892,0.14014866815692467
-0.024187599981551382,-0.3992680302843348,0.13751657936674935
-0.022932517574326017,-0.39934208347944405,0.1513240604063858
-0.021677208605906054,-0.39941219138511036,0.19993326771798672
-0.02042168547808291,-0.3994783533087047,0.24085871970332884
-0.019165960594763415,-0.39954056859658194,0.14699268493192563
-0.017910046361848717,-0.3995988366340879,0.12795870015701133
-0.016653955187109562,-0.399653156845565,0.1919451909908128
-0.015397699480064793,-0.3997035286943582,0.04891175479618021
-0.014141291651859806,-0.3997499516828202,0.29197541819081574
-0.012884744115141815,-0.3997924253523162,0.23864344960158482
-0.011628069283938277,-0.3998309492832289,0.20195269904472954
-0.010371279573535319,-0.399865523094962,0.2636406235643471
-0.009114387400352945,-0.3998961464459445,0.25686378996064985
-0.00785740518182344,-0.3999228190336339,0.1049951082294427
-0.006600345336269753,-0.3999455405945189,0.1649765093549387
-0.005343220282780687,-0.39996431090412266,0.12817541136317606
-0.004086042441089612,-0.3999791297770043,0.01504083422031885
-0.002828824231451069,-0.3999899970667611,0.17560476905942707
-0.0015715780745194754,-0.3999969126660301,0.24132329661524546
-0.0003143163912242889,-0.3999998765064887,0.23752049285270527
0.000942948397351641,-0.3999988885588558,0.21591215426007637
0.0022002038700937206,-0.3999939488328918,0.18254418686449425
0.003457437605980457,-0.3999850573773985,0.1673912624934962
0.004714637184205108,-0.3999722142802189,0.2054654724441024
0.005971790184297321,-0.399955419668236,0.13215933596755314
0.00722888418624798,-0.3999346737073717,0.2138469224232994
0.008485906770630842,-0.3999099766025851,0.16722062920683858
0.009742845518724159,-0.3998813285978708,0.08194308367519793
0.010999688012635513,-0.39984872997625576,0.2424233220834141
0.01225642183542307,-0.3998121810597974,0.2112348870916339
0.013513034571218963,-0.39977168220957954,0.1585201465645872
0.014769513805350534,-0.3997272338257097,0.24117709014953323
0.016025847124465125,-0.3996788363473143,0.18773711603730564
0.017282022116651634,-0.39962649025253516,0.2096797886118433
0.01853802637156208,-0.39957019605852395,0.20163851546095807
0.01979384748053634,-0.39950995432143777,0.14964922289163624
0.021049473036723686,-0.39944576563643314,0.24834742369991067
0.022304890635204272,-0.3993776306376605,0.12340388654762928
0.02356008787311384,-0.39930554999825785,0.209675293615671
0.02481505234976517,-0.39922952443034376,0.2493169639158692
0.026069771666769537,-0.3991495546850109,0.1128999152709409
0.02732423342816134,-0.3990656415523183,0.23510351882293157
0.02857842524051912,-0.39897778586128335,0.18911455603841326
0.029832334713088732,-0.3988859884798741,0.1943633906975295
0.031085949457904345,-0.3987902503150003,0.20492184749406114
0.03233925708991294,-0.3986905723125047,0.3150641468037152
0.033592245227095606,-0.3985869554571533,0.2420312210565885
0.03484490149058882,-0.3984794007726261,0.259810591153555
0.036097213504808844,-0.3983679093215068,0.18787322419517588
0.037349168897572955,-0.39825248220527215,0.2293479154571754
0.038600755300220606,-0.39813312056428124,0.23911060720083058
0.03985196034773771,-0.39800982557776426,0.18394998529268045
0.041102771678877804,-0.39788259846381074,0.12498811121552679
0.04235317693628306,-0.39775144047935757,0.20957735386638862
0.04360316376660848,-0.3976163529201765,0.11677662668291071
0.044852719820642595,-0.3974773371208615,0.27082985538000864
0.04610183275343011,-0.39733439445481533,0.14589705051013518
0.04735049022439247,-0.3971875263342364,0.24245942246194263
0.048598679897451924,-0.3970367342101043,0.203345948076349
0.04984638944115228,-0.39688201957216585,0.3058501036463927
0.05109360652877975,-0.3967233839489201,0.16052940680147446
0.05234031883848679,-0.39656082890760347,0.2779297652177077
0.05358651405341282,-0.39639435605417417,0.16693786782969736
0.054832179861804775,-0.3962239670332963,0.16510823851039308
0.05607730395714097,-0.3960496635283237,0.20967194107667883
0.05732187403825151,-0.3958714472612831,0.149191910171031
0.05856587780943884,-0.3956893199928574,0.16185917105379516
0.0598093029806013,-0.3955032835223681,0.31062630465777835
0.061052137267353125,-0.39531333968775745,0.21923916794201645
0.06229436839114654,-0.3951194903655705,0.0878424878859468
0.06353598407939166,-0.3949217374709365,0.1687964329116612
0.06477697206557982,-0.3947200829575499,0.19418556195103429
0.06601732008940371,-0.39451452881765103,0.1970567512236841
0.06725701589687748,-0.3943050770820066,0.2523446763933962
0.06849604724045986,-0.3940917298198894,0.211767674228995
0.0697344018791742,-0.3938744891390579,0.10426299377424555
0.07097206757872818,-0.39365335718573574,0.20853780259037707
0.07220903211163696,-0.3934283361445901,0.18734497412746617
0.07344528325734284,-0.3931994282387103,0.19612670223750778
0.07468080880233498,-0.39296663572958596,0.22858415493674739
0.07591559654027209,-0.3927299609170844,0.22370600834573734
0.07714963427210174,-0.3924894061394281,0.08683584588796855
0.07838290980618146,-0.3922449737731715,0.21429110381349026
0.07961541095839786,-0.39199666623317786,0.25147905740513843
0.08084712555228912,-0.3917444859725947,0.18061351115062385
0.08207804141916415,-0.3914884354828301,0.17650382658338823
0.08330814639822184,-0.39122851729352814,0.2464537101000242
0.08453742833667328,-0.3909647339725437,0.30406600026390035
0.08576587508986074,-0.39069708812591686,0.18038163376018868
0.08699347452137665,-0.39042558239784775,0.1868324145508833
0.08822021450318558,-0.39015021947066997,0.10016765621533491
0.08944608291574267,-0.38987100206482417,0.27140744561324387
0.09067106764811403,-0.3895879329388311,0.24538225329180766
0.09189515659809505,-0.38930101488926483,0.21278500676713713
0.09311833767233198,-0.38901025075072454,0.19503735417525525
0.09434059878644045,-0.3887156433958066,0.13884860315706052
0.09556192786512374,-0.3884171957350767,0.2442230948089475
0.09678231284229419,-0.3881149107170405,0.24265828872771683
0.0980017416611914,-0.3878087913281146,0.23899213620558865
0.09922020227450022,-0.3874988405925975,0.19774674312311039
0.10043768264447195,-0.3871850615726391,0.21564481585894277
0.10165417074304213,-0.3868674573682109,0.2067968336364255
0.10286965455194841,-0.38654603111707514,0.14641120692584458
0.10408412206285134,-0.3862207859947539,0.2220521757611269
0.10529756127745159,-0.3858917252144976,0.15278485173371814
0.1065099602076092,-0.3855588520272535,0.1909037024625173
0.10772130687546062,-0.3852221697216333,0.20667070066428903
0.10893158931353925,-0.3848816816238809,0.17525455179984317
0.11014079556489231,-0.3845373910978393,0.17988254260445535
0.11134891368319835,-0.38418930154491765,0.12102416389431275
0.11255593173288701,-0.38383741640405733,0.26530810251445935
0.11376183778925608,-0.3834817391516981,0.18794785617247878
0.1149666199385882,-0.38312227330174403,0.12696848974831082
0.11617026627827065,-0.3827590224055283,0.18309709617658257
0.11737276491691195,-0.3823919900517783,0.2290166996306847
0.11857410397445822,-0.3820211798665807,0.14088477170564143
0.11977427158231271,-0.38164659551334457,0.10959153081191107
0.1209732558834516,-0.38126824069276605,0.3079700628984302
0.12217104503254186,-0.38088611914279136,0.24434620489681114
0.12336762719605693,-0.3805002346385804,0.144178583577783
0.12456299055239561,-0.3801105909924687,0.10480663963773737
0.12575712329199792,-0.3797171920539301,0.14332991912806192
0.1269500136174607,-0.3793200417095392,0.22723623559161857
0.1281416497436562,-0.378919143882932,0.2058907694698034
0.12933201989784743,-0.37851450253476787,0.18592552573797078
0.13052111231980365,-0.3781061216626904,0.2635964525967721
0.13170891526191839,-0.37769400530128727,0.19328260061247954
0.13289541698932447,-0.37727815752205107,0.19567580857673128
0.13408060578000924,-0.37685858243333903,0.3006844512488114
0.13526446992493196,-0.37643528418033184,0.17339748364059426
0.13644699772813848,-0.37600826694499334,0.28301718918347657
0.13762817750687725,-0.37557753494602886,0.15648813291893254
0.13880799759171358,-0.3751430924388437,0.22301550685735663
0.1399864463266468,-0.3747049437155011,0.23793607273458509
0.14116351206922448,-0.3742630931046794,0.23852224617182027
0.14233918319065636,-0.3738175449716302,0.2403961759716547
0.14351344807593136,-0.3733683037181343,0.22440155399183942
0.14468629512393125,-0.3729153737824584,0.2025299334686115
0.1458577127475443,-0.3724587596393121,0.23773348545487524
0.14702768937378174,-0.3719984657998024,0.1907581329751506
0.14819621344389108,-0.3715344968113899,0.19915328541211905
0.1493632734134693,-0.37106685725784405,0.15520131246999602
0.15052885775257902,-0.37059555175919723,0.23242471882006852
0.15169295494586085,-0.37012058497169953,0.23304369634907454
0.152855553492648,-0.36964196158777246,0.21859738564619083
0.15401664190707853,-0.3691596863359632,0.1510726215025283
0.15517620871821086,-0.3686737639808972,0.21446925894867336
0.15633424247013594,-0.3681841993232311,0.2439836223748197
0.15749073172208963,-0.3676909971996062,0.1408623262525967
0.15864566504856759,-0.36719416248259956,0.18625660010031359
0.1597990310394372,-0.3666937000806763,0.22467335497416
0.16095081830004931,-0.3661896149381417,0.17686297545303126
0.16210101545135283,-0.36568191203509137,0.15029280109550613
0.16324961113000602,-0.36517059638736227,0.1546321645188677
0.16439659398848794,-0.36465567304648405,0.2250541372838329
0.16554195269521238,-0.36413714709962797,0.1617740834300466
0.16668567593463865,-0.3636150236695572,0.2135271818479807
0.16782775240738382,-0.36308930791457616,0.20799279362221898
0.16896817083033333,-0.36256000502847985,0.18718112389733826
0.1701069199367541,-0.3620271202405018,0.24278523883334832
0.17124398847640512,-0.36149065881526293,0.16916562774468077
0.17237936521564748,-0.36095062605271994,0.24287008485320966
0.17351303893755737,-0.36040702728811175,0.16910222061125565
0.17464499844203585,-0.3598598678919078,0.2430797698325985
0.17577523254591856,-0.359309153269755,0.16112697574002172
0.17690373008308824,-0.35875488886242357,0.20407509614509522
0.17803047990458395,-0.35819708014575374,0.2465382625477296
0.1791554708787103,-0.3576357326306022,0.1834066086946462
0.1802786918911493,-0.3570708518627866,0.17326332505827802
0.181400131845069,-0.3565024434230313,0.2515735126106335
0.18251977966123367,-0.35593051292691213,0.1893413003459347
0.18363762427811195,-0.3553550660248015,0.1371251381795625
0.1847536546519882,-0.3547761084018115,0.1423614924499426
0.18586785975707043,-0.3541936457777384,0.0909607214282771
0.18698022858559843,-0.3536076839070064,0.20027892493286012
0.18809075014795446,-0.3530182285786101,0.12398583194309502
0.1891994134727707,-0.35242528561605735,0.19964709106482656
0.1903062076070368,-0.3518288608773127,0.15701578702239538
0.19141112161621002,-0.3512289602547382,0.1883569496644678
0.19251414458432228,-0.35062558967503593,0.2533921808988277
0.19361526561408698,-0.3500187550991898,0.12487161327975961
0.19471447382700866,-0.3494084625224054,0.18423339196840588
0.1958117583634891,-0.34879471797405215,0.19046791075711417
0.19690710838293543,-0.34817752751760267,0.1861641701721623
0.19800051306386574,-0.34755689725057387,0.12288650498398204
0.199091961604018,-0.3469328333044658,0.1549917128951041
0.20018144322045583,-0.3463053418447013,0.14064010919521308
0.20126894714967417,-0.3456744290705659,0.19585016626263113
0.20235446264770723,-0.3450401012151452,0.29055665367276867
0.203437978990234,-0.3444023645452643,0.1415893506821296
0.20451948547268312,-0.3437612253614258,0.22704377981536353
0.20559897141034045,-0.343116689997747,0.20762713664001586
0.20667642613845386,-0.34246876482189764,0.22704192080040317
0.20775183901233754,-0.34181745623503756,0.17907663433576942
0.20882519940747907,-0.34116277067175227,0.14885896777497257
0.20989649671964306,-0.3405047145999904,0.26100393030796476
0.21096572036497668,-0.33984329452099904,0.19665669602853741
0.21203285978011285,-0.3391785169692606,0.18485743276818492
0.2130979044222766,-0.338510388512427,0.28500672164788526
0.2141608437693881,-0.3378389157512553,0.14953992228345722
0.21522166732016587,-0.337164105319543,0.22573800511010395
0.2162803645942323,-0.33648596388406155,0.18496545861641928
0.21733692513221625,-0.335804498144491,0.16469281305608777
0.21839133849585554,-0.33511971483335423,0.1382963374543147
0.2194435942681018,-0.33443162071594956,0.21222173130790312
0.22049368205322253,-0.33374022259028413,0.19629481824613126
0.22154159147690297,-0.3330455272870078,0.1750413364218503
0.22258731218635025,-0.3323475416693439,0.20390605371011186
0.2236308338503945,-0.33164627263302277,0.20533331897248513
0.22467214615959172,-0.3309417271062129,0.22622287182769618
0.2257112388263241,-0.33023391204945335,0.2422763570009724
0.22674810158490374,-0.32952283445558395,0.25282757988789906
0.227782724191673,-0.32880850134967654,0.11166723904371079
0.22881509642510492,-0.3280909197889663,0.1909107258909064
0.22984520808590592,-0.327370096862781,0.2051004413312813
0.23087304899711558,-0.32664603969247125,0.16420979395797877
0.2318986090042066,-0.32591875543134075,0.13266065527333698
0.2329218779751865,-0.32518825126457496,0.259661709624582
0.23394284580069719,-0.32445453440916994,0.13102307242376138
0.23496150239411362,-0.3237176121138622,0.1855122709861327
0.23597783769164563,-0.32297749165905565,0.26396708985194667
0.23699184165243575,-0.32223418035675055,0.1765857720889038
0.2380035042586592,-0.32148768555047086,0.2464087141158098
0.23901281551562176,-0.3207380146151924,0.20268235386922073
0.24001976545186007,-0.3199851749572691,0.1788077450910285
0.24102434411923945,-0.31922917401435985,0.15387623044904256
0.2420265415930513,-0.31847001925535634,0.3129530025511385
0.24302634797211264,-0.3177077181803074,0.13166441850697758
0.2440237533788634,-0.316942278320346,0.2370778339766483
0.24501874795946296,-0.3161737072376152,0.3065641737977252
0.2460113218838892,-0.3154020125251922,0.28008826809678367
0.24700146534603454,-0.3146272018070143,0.2993717648517136
0.24798916856380349,-0.31384928273780316,0.17549238917730975
0.24897442177920778,-0.31306826300298973,0.30556273166043674
0.24995721525846495,-0.31228415031863754,0.15927449507735195
0.25093753929209345,-0.31149695243136666,0.1488191143984271
0.2519153841950075,-0.3107066771182779,0.19154584951336298
0.25289074030661485,-0.309913332186875,0.2414507512884293
0.2538635979909111,-0.3091169254749877,0.19081375115355384
0.25483394763657424,-0.30831746485069533,0.22226532185308145
0.25580177965706113,-0.30751495821224756,0.2609922038341851
0.25676708449070146,-0.306709413487987,0.19723472246640214
0.2577298526007914,-0.3059008386362717,0.18400002314785965
0.2586900744756894,-0.30508924164539514,0.24386051576086304
0.259647740628909,-0.304274630533508,0.24532006296658015
0.2606028415992135,-0.3034570133485388,0.23154047553220053
0.2615553679507076,-0.30263639816811516,0.17980231076309872
0.26250531027293317,-0.3018127930994826,0.1655475557349801
0.26345265918096056,-0.30098620627942513,0.10713574843632609
0.264397405315481,-0.3001566458741856,0.24117462729428202
0.26533953934290067,-0.29932412007938364,0.29301692368925636
0.2662790519554317,-0.29848863711993545,0.1906488839138598
0.26721593387118403,-0.29765020524997293,0.18308646116014368
0.26815017583425793,-0.2968088327527612,0.21645779578764282
0.2690817686148352,-0.29596452794061706,0.2768364597193155
0.2700107030092693,-0.2951172991548279,0.12738076260885978
0.270936969840178,-0.29426715476556753,0.24956316811327617
0.2718605599565329,-0.2934141031718148,0.18563421172856975
0.2727814642337504,-0.2925581528012699,0.21684847664304904
0.27369967357378067,-0.29169931211027206,0.22508047144477064
0.2746151789051995,-0.29083758958371475,0.2861831824810606
0.27552797118329647,-0.2899729937349624,0.19732875699395674
0.27643804139016437,-0.28910553310576703,0.15528873395611753
0.2773453805347891,-0.2882352162661826,0.17938004164923624
0.27824997965313797,-0.28736205181448077,0.16571097652956826
0.27915182980824776,-0.28648604837706687,0.28905599885510536
0.2800509220903142,-0.2856072146083932,0.12935833628720494
0.2809472476167793,-0.28472555919087433,0.18607212014335175
0.2818407975324186,-0.28384109083480186,0.22881953740245753
0.28273156300942975,-0.282953818278257,0.164506270874887
0.283619535247519,-0.2820637502870253,0.2517404242969571
0.2845047054739886,-0.28117089565450937,0.35039205983717386
0.28538706494382254,-0.2802752632016433,0.10273010960154888
0.2862666049397742,-0.2793768617768037,0.2155350086843314
0.2871433167724519,-0.2784757002557231,0.23958835981722423
0.28801719178040414,-0.27757178754140327,0.13334260986415233
0.28888822133020625,-0.2766651325640254,0.2540724416836186
0.2897563968165454,-0.27575574428086297,0.2263313670619946
0.29062170966230455,-0.2748436316761936,0.17809957842814245
0.2914841513186488,-0.2739288037612092,0.2752985488328319
0.2923437132651091,-0.27301126957392746,0.16232717630668475
0.2932003870096657,-0.27209103817910335,0.24290684244055386
0.2940541640888334,-0.2711681186681381,0.10649213453035422
0.2949050360677445,-0.27024252015899036,0.16008165649898223
0.29575299454023213,-0.26931425179608565,0.22224513844101662
0.2965980311289128,-0.26838332275022697,0.1572273245457449
0.2974401374852704,-0.2674497422185026,0.26576229022155945
0.29827930528973773,-0.26651351942419627,0.24188730265732256
0.2991155262517786,-0.26557466361669657,0.22883339627162858
0.2999487921099706,-0.26463318407140407,0.1638648733740665
0.30077909463208613,-0.2636890900896406,0.17095391835110357
0.30160642561517315,-0.2627423909985579,0.13253102094722036
0.30243077688563746,-0.26179309615104407,0.15510737606005326
0.30325214029932307,-0.2608412149256319,0.2172599875997722
0.30407050774159156,-0.2598867567264071,0.22527980716734075
0.30488587112740395,-0.25892973098291366,0.16421751014771377
0.3056982224013993,-0.2579701471500619,0.15428718945986616
0.3065075535379753,-0.2570080147080343,0.2269146408876661
0.30731385654136617,-0.25604334316219324,0.228430895640268
0.308117123445723,-0.25507614204298507,0.21311138264674073
0.30891734631519224,-0.25410642090584723,0.16228999421626394
0.3097145172439929,-0.25313418933111437,0.22963457271233764
0.31050862835649634,-0.252159456923922,0.18953225521447786
0.3112996718073033,-0.2511822333141126,0.22797568295378923
0.3120876397813206,-0.2502025281561413,0.1398181961636429
0.31287252449384,-0.24922035112897883,0.17038997595955638
0.3136543181906142,-0.24823571193601646,0.1835803314235253
0.3144330131479328,-0.24724862030497144,0.26036222572143863
0.3152086016727,-0.24625908598778887,0.2762932866221154
0.31598107610250964,-0.24526711876054655,0.20860494702836901
0.31675042880572146,-0.244272728423358,0.2574504956002007
0.3175166521815356,-0.24327592480027646,0.2221128435610908
0.3182797386600689,-0.24227671773919643,0.189806223638757
0.3190396807024291,-0.2412751171117571,0.20738472493042975
0.31979647080078866,-0.2402711328132457,0.20754319303689164
0.3205501014784602,-0.23926477476249797,0.12457299887504808
0.32130056528996986,-0.23825605290180107,0.12242048073675826
0.32204785482113,-0.23724497719679627,0.12658546377437618
0.3227919626891139,-0.23623155763637868,0.19553151070137192
0.323532881542528,-0.2352158042325995,0.28374210341537437
0.3242706040614838,-0.23419772702056788,0.11469415235496552
0.3250051229576716,-0.2331773360583502,0.14183827271848645
0.3257364309744316,-0.2321546414268717,0.1580001362198711
0.32646452088682604,-0.2311296532298163,0.27180230561083035
0.3271893855017097,-0.23010238159352814,0.15500529547758857
0.32791101765780206,-0.22907283666690959,0.11193105398400494
0.32862941022575787,-0.22804102862132197,0.1858279450293226
0.32934455610823643,-0.2270069676504859,0.2056717929446184
0.33005644823997327,-0.2259706639703788,0.17192688633036288
0.3307650795878495,-0.22493212781913485,0.23608515362968222
0.3314704431509601,-0.2238913694569448,0.1672536748939484
0.3321725319606848,-0.22284839916595287,0.16996876878543518
0.3328713390807562,-0.22180322725015578,0.2631064790889826
0.3335668576073276,-0.2207558640353022,0.06955899446414049
0.3342590806690426,-0.21970631986878872,0.20519289915559238
0.3349480014271018,-0.21865460511955886,0.13043952830016536
0.3356336130753313,-0.21760073017800013,0.1847342720846446
0.3363159088402487,-0.2165447054558424,0.1279427276776439
0.3369948819811314,-0.21548654138605344,0.18380269536796487
0.33767052579008267,-0.21442624842273658,0.20232657628104028
0.33834283359209705,-0.21336383704102843,0.22145426389646888
0.3390117987451279,-0.2122993177369935,0.18825122624247423
0.33967741464015194,-0.21123270102752156,0.1798025904936663
0.3403396747012344,-0.2101639974502245,0.22394739624140722
0.3409985723855949,-0.2090932175633304,0.2103184707488347
0.3416541011836715,-0.20802037194558032,0.21465754230606282
0.3423062546191846,-0.2069454711961244,0.23709133476937838
0.34295502624920204,-0.20586852593441557,0.24215827419210134
0.3436004096642018,-0.2047895468001058,0.24996349155092
0.34424239848813576,-0.20370854445294034,0.21921432984006667
0.3448809863784922,-0.20262552957265353,0.24665440979801118
0.34551616702635934,-0.2015405128588617,0.21966498699644987
0.34614793415648704,-0.20045350503095813,0.18421387556819208
0.34677628152734846,-0.19936451682800826,0.19666628087578164
0.3474012029312028,-0.1982735590086416,0.1666673946131426
0.3480226921941558,-0.19718064235094648,0.25086744453570975
0.34864074317622074,-0.19608577765236446,0.19259913254453562
0.34925534977137945,-0.19498897572958174,0.125848568708955
0.34986650590764273,-0.19389024741842326,0.18684061401091243
0.35047420554710956,-0.1927896035737467,0.2491853041375699
0.3510784426860277,-0.19168705506933315,0.1343651507423623
0.3516792113548526,-0.19058261279778113,0.2213763152362688
0.35227650561830615,-0.18947628767039826,0.1928958263860436
0.3528703195754356,-0.18836809061709464,0.27907379593001036
0.3534606473596718,-0.18725803258627316,0.2675753756490424
0.35404748313888745,-0.18614612454472215,0.16905043823925495
0.3546308211154538,-0.18503237747750806,0.23246644101945618
0.35521065552629905,-0.18391680238786492,0.17369094445110664
0.35578698064296477,-0.18279941029708674,0.10749848672330442
0.356359790771662,-0.18168021224441944,0.2336732199517367
0.3569290802533287,-0.18055921928694993,0.11547352897905537
0.3574948434636845,-0.17943644249949822,0.23032609965387085
0.35805707481328714,-0.17831189297450725,0.0871903398870376
0.3586157687475866,-0.17718558182193464,0.20868391987666302
0.3591709197469814,-0.176057520169141,0.109759805855888
0.3597225223268721,-0.17492771916078098,0.104924447832488
0.3602705710377154,-0.17379618995869406,0.2515616819265158
0.36081506046507905,-0.17266294374179247,0.231583428514849
0.36135598522969425,-0.1715279917059516,0.20619839142951746
0.36189333998750906,-0.17039134506390038,0.193014202351905
0.3624271194297417,-0.16925301504510865,0.19607118500320433
0.36295731828293243,-0.1681130128956771,0.1617828297203357
0.3634839313089957,-0.1669713498782271,0.15634344163184138
0.3640069533052722,-0.16582803727178763,0.15578631675606164
0.36452637910458024,-0.16468308637168502,0.2487752832277785
0.3650422035752665,-0.1635365084894308,0.2280846337482908
0.3655544216212568,-0.16238831495261113,0.1732567522556131
0.3660630281821067,-0.1612385171047731,0.13899502908864902
0.3665680182330513,-0.16008712630531344,0.18978330300813914
0.36706938678505474,-0.1589341539293675,0.2286202412036517
0.36756712888485993,-0.1577796113676947,0.21298004719359367
0.3680612396150373,-0.15662351002656705,0.1726812172239665
0.36855171409403265,-0.1554658613276576,0.2496401100310563
0.36903854747621667,-0.1543066767079254,0.14731573474354762
0.3695217349519322,-0.15314596761950353,0.194920216750177
0.37000127174754105,-0.15198374552958713,0.2581839900172322
0.3704771531254725,-0.15082002192031793,0.3004846770853585
0.3709493743842693,-0.14965480828867225,0.28011405017983043
0.37141793085863406,-0.14848811614634666,0.15219941454349128
0.37188281791947553,-0.1473199570196457,0.15930103382370428
0.37234403097395435,-0.14615034244936592,0.12000770997785892
0.3728015654655288,-0.14497928399068286,0.19485141075759754
0.3732554168739987,-0.14380679321303794,0.2518659974801144
0.3737055807155514,-0.14263288170002217,0.18733517714600179
0.37415205254280537,-0.14145756104926258,0.1992271501654464
0.3745948279448538,-0.14028084287230883,0.07562088312359064
0.3750339025473091,-0.13910273879451637,0.14280981092431133
0.3754692720123457,-0.13792326045493264,0.14993205786794214
0.3759009320387422,-0.13674241950618302,0.16772484481597738
0.3763288783619251,-0.1355602276143538,0.2091795473639914
0.3767531067540101,-0.13437669645887818,0.19030420576476154
0.37717361302384433,-0.13319183773242024,0.22667517894130912
0.377590393017047,-0.1320056631407608,0.1744649684541864
0.37800344261605145,-0.13081818440267967,0.11376926320479269
0.3784127577401454,-0.12962941324984098,0.1756189186089118
0.3788183343455107,-0.1284393614266783,0.21594482266594733
0.37922016842526424,-0.1272480406902764,0.19810801869867176
0.3796182560094971,-0.1260554628102564,0.1200263840353816
0.3800125931653134,-0.12486163956866021,0.21381941854138423
0.38040317599686985,-0.12366658275983233,0.17357314857882203
0.38079000064541396,-0.12247030419030425,0.16812919913933277
0.38117306328932166,-0.12127281567867881,0.19786346627040874
0.38155236014413596,-0.12007412905551139,0.22198948303690297
0.38192788746260364,-0.11887425616319447,0.2788323531375043
0.3822996415347128,-0.1176732088558399,0.23244300735050752
0.3826676186877287,-0.11647099899916312,0.1491144479101634
0.38303181528623115,-0.11526763847036398,0.17157742518365657
0.38339222773214954,-0.11406313915801028,0.11198422235430384
0.38374885246479856,-0.11285751296192148,0.23308927641914
0.3841016859609139,-0.11165077179304908,0.14625044033710133
0.38445072473468644,-0.11044292757335981,0.22119898897531343
0.38479596533779675,-0.10923399223571909,0.11404219318410495
0.3851374043594497,-0.10802397772377088,0.21119600364280602
0.3854750384264076,-0.10681289599182096,0.2604916564507072
0.3858088642030237,-0.10560075900471957,0.1936162472722931
0.386138878391275,-0.10438757873774136,0.13008732827473332
0.3864650777307953,-0.10317336717646837,0.22393446345996182
0.38678745899890704,-0.1019581363166709,0.18092368502233563
0.3871060190106528,-0.10074189816419046,0.11932220679490028
0.3874207546188277,-0.09952466473481904,0.2762435592348204
0.38773166271400966,-0.09830644805418143,0.13876733821939807
0.3880387402245904,-0.09708726015761747,0.20689847085272864
0.3883419841168058,-0.09586711309006105,0.21002682780254564
0.38864139139476617,-0.09464601890592218,0.1559699238181743
0.3889369591004851,-0.09342398966896892,0.22265569133365307
0.38922868431390933,-0.0922010374522061,0.2497976496045397
0.38951656415294766,-0.09097717433775715,0.20399158308834328
0.38980059577349857,-0.08975241241674567,0.26646794663121187
0.3900807763694794,-0.08852676378917401,0.22473530820080434
0.3903571031728535,-0.087300240563805,0.1885544343669548
0.3906295734536576,-0.08607285485804177,0.2350996573179604
0.3908981845200288,-0.08484461879780926,0.06830912568066416
0.39116293371823113,-0.08361554451743247,0.20823721040951307
0.3914238184326822,-0.08238564415951759,0.21928404072114835
0.39168083608597826,-0.08115492987483298,0.21888586763230794
0.3919339841389203,-0.07992341382218725,0.19422167919761674
0.392183260090539,-0.07869110816830993,0.22060868535613698
0.39242866147811917,-0.07745802508773253,0.21282392049510812
0.3926701858772243,-0.07622417676266602,0.3058855806844739
0.39290783090172066,-0.07498957538288163,0.23946377320148393
0.39314159420380057,-0.07375423314559142,0.1859667597913314
0.3933714734740056,-0.0725181622553256,0.2889129626264647
0.39359746644124977,-0.07128137492381356,0.16755217598612976
0.39381957087284164,-0.07004388336986232,0.2578170544846923
0.3940377845745063,-0.06880569981923733,0.2346286991683341
0.39425210539040734,-0.06756683650453953,0.1664593884820109
0.39446253120316804,-0.06632730566508559,0.22402792824777584
0.3946690599338921,-0.06508711954678802,0.1467073491563724
0.3948716895421846,-0.06384629040203207,0.2282078764092218
0.39507041802617165,-0.06260483048955579,0.23750818144175065
0.39526524342252045,-0.06136275207432991,0.247013434708472
0.39545616380645876,-0.06012006742743458,0.2645898064979789
0.3956431772917938,-0.05887678882593922,0.14441823334282208
0.39582628203093073,-0.057632928552782264,0.20840003226036627
0.39600547621489124,-0.05638849889664768,0.3184403976270703
0.39618075807333114,-0.055143512151845014,0.20492509116389654
0.3963521258745581,-0.05389798061818717,0.23499208032014351
0.39651957792554837,-0.052651916600870374,0.30446361408873923
0.39668311257196387,-0.05140533241035044,0.1739924312441728
0.3968427281981686,-0.05015824036222221,0.23001810322848332
0.39699842322724416,-0.04891065277709895,0.2833302413572656
0.3971501961210056,-0.047662581980488526,0.23243540248513653
0.3972980453800168,-0.04641404030267266,0.12509573942656282
0.39744196954360483,-0.04516504007858621,0.2584561690013236
0.3975819671898748,-0.04391559364769317,0.15771247304618283
0.39771803693572383,-0.0426657133538658,0.1926035364047347
0.3978501774368543,-0.04141541154526377,0.19156552304568464
0.3979783873877878,-0.040164700574210045,0.19325935972677716
0.39810266552187745,-0.03891359279707025,0.12979386868259551
0.3982230106113208,-0.03766210057412986,0.15853010819893137
0.39833942146717183,-0.03641023626947358,0.17652521874816052
0.39845189693935246,-0.035158012250860994,0.23666984919512413
0.39856043591666435,-0.033905440889605475,0.28635739293969276
0.3986650373267995,-0.03265253456045304,0.19227915685743904
0.39876570013635115,-0.031399305641457924,0.21725762178649669
0.3988624233508238,-0.030145766513861385,0.17543675220874133
0.3989552060146429,-0.028891929561970453,0.1418281953494121
0.3990440472111647,-0.027637807173033435,0.23471625335916177
0.399128946062685,-0.02638341173711861,0.0892283234120513
0.39920990173044774,-0.02512875564699288,0.24609528574256684
0.39928691341465367,-0.023873851297997198,0.16987959240669778
0.39935998035446785,-0.022618711087925555,0.19541548081213295
0.39942910182802754,-0.021363347416901754,0.2427594365273332
0.3994942771524488,-0.020107772687258357,0.26851528184150264
0.3995555056838338,-0.018851999303411998,0.24203467740662366
0.399612786817277,-0.017596039671741906,0.23852086068883344
0.39966611998687096,-0.016339906200468417,0.18170947738913776
0.39971550466571193,-0.015083611299528244,0.13715640696023054
0.39976094036590537,-0.013827167380452933,0.19433639597963248
0.3998024266385705,-0.012570586856247316,0.13536110930217649
