11.193880330404395,-9.026815340727016,-143.57734543704922
18.884771163500474,-0.017492443936604925,148.58598864909234
-13.557968826513713,-6.667176678641119,97.08247327860859
18.988306326349004,-3.4810622029023515,138.00609720736483
34.81679095079523,-0.050074222873580244,89.35683095897227
38.20467063564978,28.391884356822654,-244.0136850924226
8.395486505603234,-25.51769424275763,52.31863213911705
25.063754142509246,-46.57435742071745,-193.46910994834917
3.609899507972045,-21.63249104561382,154.47228791930678
20.060119478015835,-21.19452951092335,390.6362085977811
-5.32742825999947,-26.648370710724613,-328.3956610587823
31.609283359951302,39.68230703895417,-142.77167379695263
26.47404919411475,-5.416608549773221,184.9779889294882
13.424726322752505,6.683386827333867,-90.25730103861763
-19.28221785427044,-9.40226022089309,-379.2499474701634
-23.304153126508677,-15.382725669937301,-253.6417703943862
-29.241980632370055,1.6323311323090317,85.72189528210181
-2.5921708304801214,-18.431837492927126,-102.13881484308698
-30.091677424507104,3.7702614184434897,659.0868510225978
-0.35282139919109157,14.294469169896749,-271.72958281177023
0.25879173859055005,-19.98304880006945,-139.60451423543546
-2.7051610993442035,7.0875859289490215,-332.8121669794497
-18.082259155341383,23.214101612525507,-130.50300489962456
4.664954340191768,-33.741927126218705,-136.72691676914476
-14.354593833107455,29.09560594708306,263.9353059610964
9.55255054619198,15.149141702579993,32.214894404109806
23.966045090749976,4.253703644783692,63.9394942850006
25.110697540382688,-1.1265456879465494,24.423063838498653
14.708353696559303,16.64033250698828,168.23567484367618
3.0502038334825827,2.3701900163679133,100.2406343418387
-27.573518311439127,11.69394678553568,98.76711926185651
29.304229175647535,-1.6782625593226985,54.21979384626593
-19.236128074824087,3.415548335249936,160.50532779439934
13.297427002958035,-7.929252351293239,362.0865931032239
6.648045945471845,-20.04476381235895,-208.3584417326068
15.405829988064049,-26.057845888863604,-117.58255848348756
-19.06743029490817,35.31791863256958,-128.87931608287954
-26.883644948956583,11.680762824319741,-388.7314162336024
-7.332322103627145,-11.588259148717528,40.882231014706925
6.797024348744286,43.77870773511325,-180.3533609448029
21.988396367229917,25.11096900018601,-339.9017014399166
-29.76413735364195,-10.281019707353579,-77.26868901460816
39.26541746272625,3.922218721555266,-310.81750066319375
-13.809291291186454,20.70980212258762,-130.67879190951103
11.90296187951548,-24.26681799594624,-97.76607590428921
-9.902101383756097,17.81689993630208,-19.8024767830311
3.1059171190828803,18.96798965800229,222.13156226596973
-3.6505779575479496,-2.5497278675425994,203.35981727044526
-3.8369325709245192,-22.95290202357808,306.9778404864429
-15.431856004582311,-13.349320445088566,189.56791628370638
-3.7420890914681855,-4.230223230062476,-219.14841504810525
12.79421566911334,5.619990154002551,-221.4108374053649
7.520757037523272,-0.8079542962565016,33.81084436085259
-18.90553919250953,30.741075094777482,285.2753898185444
-18.272545459800742,-16.38933811062853,-196.44096657695525
7.698179202582337,-24.186287980324327,274.3420689532235
-30.358449304419977,-20.264191298504723,-162.23910467713065
-38.34176086158163,11.124477359441208,296.77383045147445
-4.029567762695152,-16.447972993375647,34.52999664976102
-25.563151080529096,27.354147940560086,-146.32930245553527
4.628461897524309,-29.918817400040155,143.51679893934573
45.37550210721587,19.317305166675528,-137.41170852298018
-19.882563978905225,19.154938871127424,-207.8644240502954
19.18725170463191,-19.85670277662712,182.2440441674902
4.325310501099123,-32.07223803262198,-144.9649986452351
22.231307895800434,-1.2679753305411692,169.62246227608952
-28.461276849100294,4.726770383973094,40.530181742730484
-2.1099573978758093,-45.16488572143669,170.433285932096
15.715844980587478,-18.992846307166356,-82.0607173165445
-7.177094723237333,-9.257308064930017,-177.58048128131614
0.7485814346458697,11.456743021607934,294.326333140963
16.387315367496317,-27.55945038138334,120.59520684356231
18.785225414712727,16.387910365831676,-66.01477653187767
26.972402073417495,-23.653946933892257,-57.72377932816697
12.17491770576212,12.46979774542888,56.989716557400946
-2.757505482227372,2.743683142562544,88.30695833846106
7.9483146562578275,-6.133059684344715,194.4939634105417
-14.164908306123989,-3.338815085694767,270.6843451050863
-25.654398129256315,1.2383069535596807,-251.93449415628226
-7.002010964649692,-4.557288894478141,210.86946938414206
13.555069285804302,-19.491548219385628,145.10489859662104
-17.296495335186265,-17.789517000963222,-150.19325972239267
9.268828620605769,30.955616938413122,222.86026194961508
-15.326379660057896,25.144264692870863,307.56431319448916
-11.521676145708717,-18.213386094825662,-81.3998315253766
4.796551687091658,20.685114769243746,-205.15867397928577
24.353441634804277,-2.011134457107774,78.30552856140167
33.64101988706388,-18.334615101851387,78.2455029506521
-27.509052479812702,-0.7207795454858951,322.5222465376995
4.486677779106926,-16.476595275488812,94.4698706335223
-5.718253449994883,44.13389247624818,50.44467237529931
11.324806332525025,20.705013599396818,-110.86994189112333
21.433517104042767,9.643524704837164,373.90665523391954
-10.153990122924817,28.3970455338499,110.49073540826527
-22.225722670297667,14.30455760996493,279.70228536972934
10.414860134131478,3.1507550188972906,29.69286198845395
21.56916040094736,-12.126603408998605,-164.01222913311167
8.946193310321323,18.15831350468723,-183.3496469285347
25.2343580246554,-17.88048605772144,110.01707740649447
8.275297616811049,-5.203660512245463,247.58179522532728
-8.72317295376049,14.11121664101848,207.49359181472892
1.4271873820738477,26.695305556482598,-48.68109378757979
-19.372062525491568,6.831378132906323,-174.63516499493534
53.80058289689211,3.9243790163932384,-365.85358226770364
-31.7831927873354,-19.45546077066971,244.55025247160998
-22.406990431502983,29.979857945699937,192.07262356377447
-10.45364405103252,-29.20905270324994,-15.109237528138078
-2.9469016164409028,2.5217776678510404,172.83543227339186
-33.935613390362185,4.279624665043969,-159.12237563902153
21.63580799264828,19.17698498442154,3.288639148394517
-30.952488900296128,-21.61068361069797,515.5265929745527
6.176147185433444,11.825914334117186,-143.87354168152123
-25.064535948932296,5.86269502481437,-19.406798473350815
-10.503153697732863,-18.98012412898057,-169.54465085886696
-16.28214900794617,-7.67566940005521,-99.46135511988595
-14.34145314023474,4.441652855947228,59.17350961281396
-13.66660945854646,6.0179750429910905,-117.19528902825982
10.886097470828162,-15.024086110750169,-23.425077929874742
5.044956593224125,-18.712798243764432,-25.35885853685846
-13.520292899223245,-6.566521425658884,-194.07608193567114
5.114818865934591,4.97880318274309,-53.17366405730495
6.780721140288747,2.473663784903124,-274.0958831590032
20.08741597768808,-32.076841159419295,-96.29370569120685
9.71721931945463,-18.471887374728432,31.48539659000033
10.890383649406184,44.27039547339889,381.02072751224006
-28.70634667078937,-24.195722200987802,-71.50898449083293
-29.75395146424954,10.616583763722216,427.91281317200037
-14.41706742544735,-5.8488886824801325,229.82151375716896
31.40768159443757,6.085928019564564,15.744228173269615
-6.405863743052251,-18.958826499165205,56.780472459928944
-5.178463009557273,33.49746671996777,163.42078097270257
7.687753691616914,-24.449851380414348,-171.8790533642899
-20.512817016868624,41.651562444181955,-195.0795560565137
-8.168442249017806,1.0505769191929981,-74.35053079472522
20.68223460270483,41.41459581169664,409.72788546952694
13.472023469337815,20.533563718072546,102.85412204054332
-24.79553305341989,4.1445512806872795,-285.3079575202044
-33.855606569698665,-14.773277907813771,87.89648865462509
-0.6922830459325617,-33.52276215854008,419.6168475998885
-4.0653259348029245,-5.028077578165695,-418.0576341517314
-20.55740421626174,-22.361651221959313,54.94482114351826
20.96783693736723,16.282131119779663,-7.5263224732252105
15.572358009118254,44.357039157741795,3.1381318411607926
14.379315838565315,-14.164917945130558,197.68278652745653
32.66084095544569,14.029193047481474,128.72573809544517
-9.641585739403473,-37.231517725618616,-29.825043019928355
31.614993565714823,11.147483056462681,-157.5020035140815
-22.287850695318564,-14.118961680041668,396.8567701559584
23.803967996477095,-0.2402435864696517,454.74992853405706
-18.818393197109472,3.480668387485463,-78.90167434942795
1.9108023484284158,8.590513246423377,253.77221705874496
-39.38093215114691,-9.751632343593313,0.2433817172032144
-25.16697684822736,-16.910602550951143,310.7412997207031
30.236077758655284,17.147894862673933,-48.791792981348294
-1.0604771356913498,-22.286489726879882,228.19546103151356
30.545573978231925,30.180163690138468,-96.59154883826085
24.01396104034433,10.985437782751069,228.504063399641
-11.426667851295393,-2.1502671436466896,253.61634133623565
25.59153771185212,25.72417876863142,-140.00836839886318
11.602685939463122,9.842204423527484,-130.1577302850421
-21.97298505138743,12.827212342374336,169.7602556160578
16.67845627244583,-0.6317264838035226,-188.40899559391585
51.11649866435344,20.606171142215143,73.59148945786534
25.68884005102963,-10.337029312567411,85.90310226275759
-4.268303177291544,37.04638030955899,-16.026166176599112
-4.484657374105579,31.656138921424613,119.91603045139266
-12.247233891571055,-32.86826462349275,-205.87573271665954
18.241867773652608,-6.776441526527826,-195.7492971420497
-1.1942115364816828,-31.1972226799017,-27.81250596352815
11.825663996802277,8.711138233682377,-319.25885707383446
-8.056375851962798,-0.4501827072920731,239.9431236056979
-13.878377715506733,31.31043578566931,-70.00285699701809
-16.28804883120004,-12.507883856485353,284.57832471952395
3.7482445426386866,-24.683171999725268,-151.3637335344568
-22.994398963210823,14.38823608409908,25.093634415149285
26.264791428155473,4.374057586434576,88.40641184412729
-4.3781457154498264,38.474577570697576,249.19603034973449
5.204663194290697,-6.353068163716627,250.72603989495056
-6.114744627156744,-30.676857760716665,87.1937994266072
9.446706146132136,-33.073904755723866,86.79459629065384
-0.30237714087659207,-42.83679428357341,-206.45641952915724
2.2097503071647844,46.52071290363377,-51.618666025553196
-19.074694865672,-10.532882440885043,116.5813977063741
7.410466722049973,3.3845217390386866,66.2404059826061
-15.49528589745037,1.7938925741077696,85.94364300854183
11.674339082566124,-57.741667439899445,38.90997166868715
-7.035605305159902,-6.687074857041867,-98.28053308057831
-18.19187023498506,9.138308523107257,248.55681315829528
-9.84663031449196,48.79692529163929,-396.9852418772928
7.406895000699536,6.695016540709574,95.27398829413046
-29.21579757740271,-13.020937892343195,-191.02550911809348
-18.43088831025718,31.070724919115904,-53.620768657168774
-3.0352280486959664,0.7071515433182886,-48.74610459521105
-12.617468272408438,-7.212005243660658,97.85227591492006
23.65354176917224,15.247967899713508,266.8919090632192
16.83780437291276,-17.25757759975164,-72.28110852009671
-11.295504335585099,-18.179442182600408,178.75764044665857
-4.127159633690962,-32.505781094960064,146.07387858994696
19.922678802753424,-5.013108690844423,58.71963212038101
13.335202074290041,41.12217409025857,538.9282635598283
-5.842941228464227,-15.561899148265159,541.8460820809704
5.492973990476386,-22.70599105925102,-231.21600607295312
-23.927676402521797,-3.7942606098600344,-179.9624688507406
-39.74107312478204,17.961200043600748,143.83507026636792
3.826623061456593,0.0062677801012677075,-35.58621966004264
11.85723597257658,-29.040162400206036,42.580351230643146
-15.23930068028761,13.748343055311194,-78.83360681682181
-6.92690639823823,21.2625596445093,36.63501313935977
7.489870690016588,16.748476572754708,-81.00672361715414
-34.111004172375786,1.2999697813498887,180.22027230354328
-3.401526092909279,5.574518969883196,59.283639447900036
7.705685624781923,5.822101166091872,-101.69899683162558
-19.254805422744244,-2.3623082585713955,-213.05126261229896
-11.52318709822562,-17.53023106464491,-220.15554502929976
1.0903048747760704,-44.073928967034234,132.2791932045462
37.031609564233776,-31.984551517901522,-65.80078830175486
8.504207573746381,5.868995348711682,-214.5947397801851
6.726323364443935,-7.178115388483402,74.34882474138533
-24.85277275897021,24.068943701830932,-61.53701682046451
-19.11674859662076,17.11545976580937,12.817450885875198
-1.4035457628120498,34.0355487398244,-377.2666878967725
-1.1801382380739165,2.6495002244008496,171.66729729973324
-46.78796266333592,2.678194944252645,-93.5677164989753
-25.86376576339324,-8.646570549604235,35.5088592165987
-14.700141199787709,-21.32794231220362,399.0996359557377
18.00771340340287,1.5443255122255353,340.6666761332278
1.1013237543784025,-2.9370715616258773,-115.1292712617976
0.2925650098989512,15.825026275732611,65.29276395411102
-30.371527457495123,-3.782886557118699,69.87035132967647
-5.420276597103946,28.3013907566512,80.38991499039076
2.2230287970769917,24.397079314119363,205.34468324767988
-3.4105838452990644,-8.669955920677344,137.8667379164087
1.8824402875005521,10.09784394342475,-123.73418828196094
-12.18188792491132,29.10256055284941,-83.39856998565655
-8.173673629004583,-33.00347659205874,147.29042393984108
-19.791262755813975,-1.188228162552047,-94.34197122981848
8.768927507717562,-11.610994539802672,-291.1327294142204
-17.953171808852645,24.300086211878373,-32.14889926425993
6.677413876038026,26.536415759073833,-56.46319629908867
23.371334871422146,-23.508028745554903,-46.791528645859636
20.758355745105604,19.694084007618777,98.3450898019987
1.0583783193959118,3.8871323263895556,271.12338990647805
-9.875497981121688,10.549970009752151,232.58865549738758
49.76861232826073,21.010118983491267,-104.7706208445083
5.198300366396999,24.05300381080577,39.27892166340305
-17.570207250685716,-26.82615914723045,245.59214167618592
-32.12668623429062,6.5764765057148145,-155.06241738151795
18.94344953472536,6.676228840471542,-197.05116504954597
-31.172160561063883,27.298965231357137,-19.309757708759857
16.727912436981274,-27.15453655650446,28.632487724737572
9.052201008688009,-24.683118022951707,-72.77446184928202
-6.63359416054076,31.970996851809986,-21.91994805193498
1.440447755431184,-11.631083419487144,-100.86610109310166
-12.623782534069436,-1.8481193256804578,-445.2859772113352
18.395502577937894,-26.67486233410942,-23.544758448316657
21.984018461182465,-6.210237878302483,287.29442016095186
48.45887537868811,-10.475220249180932,-294.5482191269421
35.793653191430046,9.416455969013036,-78.37474952665853
-13.499256984137213,38.429221781827565,-233.6797738447426
36.19326878331449,-19.544002118181638,15.61602354518591
-4.6295980279752005,25.937716197070056,-339.5729773129706
6.473580647716367,-3.683721237253047,423.16626742344727
10.482243177264994,-20.37440532021838,-205.72603148359497
-17.23697727326882,-3.989876977816534,-37.1842359589277
6.884975208492249,-22.25025145718636,-180.1294320052097
-32.11534766901629,13.353951266556878,-2.7365934860206007
25.021313594619016,-7.829213996688483,226.02222682735177
-14.473289312143498,-8.30006977903762,-62.87588700324122
-44.460265759535105,-10.433270448662135,106.20906551889391
39.373445767276635,-20.087996880482066,-339.5271925309222
-16.930658925300676,-11.060817959873878,145.84000768201255
32.10796629558689,17.14462329374314,149.47151385365532
28.095422319303772,-26.443223741882896,-149.2166336701982
20.5428869005687,12.963684332636657,316.50231879966435
6.041386351755323,-8.476251397458052,-336.1373167331064
41.97524328472744,-22.935505194391293,230.26332384695465
54.85284028197432,-25.909243860206633,148.47709034500375
-11.562765964265335,7.193352496493302,3.8887049773312214
-7.663895444708181,14.152742245146968,-259.7044305422818
34.53167003817942,18.501005924141698,188.45374952993973
-20.094222600994726,-7.8615744731652555,-328.4456105548578
-15.026273167956862,-10.046282960260204,-422.77907525452304
-1.3011294809227603,6.4568453749993555,-158.4584509175216
-17.102550996103925,4.55760788946249,-130.56187672692622
16.31078208665808,-1.040757472622985,-185.67008610118614
-17.571657555070725,1.8302911924573522,-136.9244850026166
-6.09990971135399,5.611889395337131,-274.5226849776889
1.703639505691096,-2.447020590701988,-61.59080055432743
33.89832298233326,5.5425267392244155,142.28570337955023
-27.42005153360212,30.01577710112006,269.4910086224646
26.747460313740365,4.461067422438128,201.16682317952944
-19.642338998181522,4.558380156978872,69.15943886313835
-19.15146484673918,21.37599821770175,13.35625555152051
-24.37389329429387,4.3566749436906385,-136.87878711289537
-24.378914684745013,-6.0762764794855535,228.53880193916666
-28.41078692809284,-9.020347944250696,311.5093023105076
10.753301817167657,3.964894570955342,-184.86998598647443
34.96974605026621,3.38947897345899,-415.9852319264935
8.198401725367042,4.210742416446549,205.83718505983074
7.239628104539016,9.096437615790714,266.2902402328032
23.093487344570637,6.314572081186708,126.29600065266271
7.969857198805212,-38.530968418058436,-400.36661848539137
-17.88267648634831,0.5336099563800977,390.4029063582236
-14.58506674317877,-17.84575995533355,215.2786616750203
26.44821811435838,6.1369302764702285,247.12685119564682
6.933350491148074,-8.53608783502155,-218.55794066294382
38.03827279624429,32.927175022989765,214.56429701918728
-39.196611051393475,-13.636799363977616,349.0074684033042
15.637608211398948,2.228585000568083,-130.66260856954455
-23.373274449599876,29.29522847585922,-9.179919300950857
8.045119610528218,36.52999156125433,-59.04209010693364
17.70945011918216,2.3385787726779568,-146.2447709827938
-26.615801407087286,-0.039142732071593536,-192.36495109017866
-23.11550131941403,17.444115893116752,-36.6047732227662
-2.455076614493477,-29.057221471260565,218.38518233840531
-0.9067791549735225,11.657461367049022,-185.51083655779848
-36.188419403442914,31.181233402373316,125.43970740622893
39.080429631654205,18.96832037074188,303.69514548347064
-6.957547786844831,-7.36080237821594,-253.06737535122195
16.04112993297168,5.570114216961449,-44.75061566152092
-37.76749101564856,12.996584058488734,-102.0891348882522
45.35914924860304,-10.204347811713323,-90.69608819616175
38.397030920957924,-12.104152476160133,320.51192997344407
-9.80926979705009,64.5483849674616,6.554291543056741
-16.112681209973413,-1.7682271920722505,-64.72001931524137
12.533951513832971,-14.32763565017728,-223.31822981896505
1.4186463748339728,3.9363812415301815,-201.9733641024052
-8.748329916886119,10.01144072204533,284.57744656227015
-10.280585590545142,1.4264484585809598,-54.4392185758393
-16.736714487421203,24.063047431898298,-225.83318343650873
57.41320279471775,10.031684670036782,0.3226056694108734
2.724356285874938,-6.382910666908237,311.09245929504556
-0.8501787732296364,14.385791675995875,187.49474540396463
-37.941745260613835,18.179235315031363,212.34005085877592
-7.611924544965019,-22.762341210217283,27.455610083392095
-8.209652368417837,-28.163135484611583,201.12568861592908
20.535855428009505,29.31892352320642,245.40839785780372
12.81506439477601,-14.774386897354184,-294.62791462091485
-13.26321021953703,-7.570269460486932,343.75119113852776
8.704726955265425,-34.41121873730036,-376.5491277248011
2.9921549339160265,-3.690906796094366,-109.07984296311565
-0.21410235200385697,25.523426636059,-223.6508767645648
10.489422078896013,5.406830826033767,-177.9208584496946
27.534713127406185,38.377844188356235,93.51159315174786
26.815591655571353,7.0472864422801536,-64.29822680412789
42.25445807579159,17.17902470535012,-419.71351631897875
14.207774645257645,-1.152432890885604,-85.89378375676108
13.25865580909577,26.464310072482156,92.59153429210927
-13.042992961767965,-4.781927329178103,76.65976847853443
18.90966418699631,-1.9958430419904012,-225.89470074608622
-0.9747954620470698,16.738734003156882,16.640240746503473
-6.006148511101133,31.880886578296142,-89.03992361698127
-2.5240258955731294,-0.5405057635700226,-173.60371532678346
-7.337197126424937,6.204042219965245,-164.46487542634554
19.474859555960244,-11.403862253604487,-99.93970295245543
25.752436750287252,16.574021021169823,-118.18107292403961
-41.22530947334525,-11.91638572704289,-217.17985315123363
12.294000370019385,-0.22950417671974868,-237.53626797401645
-14.262442700240317,4.577723546740372,-245.83768972332075
3.695581685759141,7.617502414225152,141.7630423526753
-14.980374215208482,-0.39588149709182996,129.06071478479205
23.41165612778495,12.764451348482101,465.7428451538714
30.250711060090566,-1.282654460016706,-10.865472570375195
7.428952810949511,0.6069335226025683,70.38689051759287
-12.794827096288575,4.364002398707859,-131.59693070918362
-16.882884268943982,-13.141710987007908,-122.478151354528
24.14903303655222,-5.326104461495663,-169.2651220174013
18.41425917562398,35.34952280249901,33.80214081197505
-70.8864245540681,16.095551831102505,-99.78180966268101
-10.508807415161861,-2.4480604237029526,102.95645575375853
34.41628828653752,-2.670195591573224,-256.09127836789565
-0.9146215356133018,30.76445954614437,-1.6870215835562612
-30.561462230410285,2.957611764669321,-254.65512848789095
-7.75420327262885,-1.0647817047535413,12.613899356971558
11.117335287520406,26.36355386652628,34.47620914859251
-10.339810396108735,25.661788331002732,502.7833584890702
-6.528784769875723,-6.578829415975882,234.89550432381404
-26.195360635070788,6.854151961997176,-141.79986023610428
14.971375193192987,36.558780078758566,360.2674283429344
10.670308046135037,-9.981235161357883,53.51350532898118
6.645867868756846,33.42327295815893,70.24273748134303
21.008575116709363,16.319411370423357,183.49627220035575
-19.61110970738639,1.7616055302719587,-202.13362759978207
1.0865173860709567,1.9672726400658644,143.61128890352683
26.501365936665007,-33.45904562760778,79.70589544093703
-34.53307591870011,5.574389993277029,47.562748904592716
-17.47012371974635,-11.466555100583545,80.73803959560861
-10.784471151551415,21.8732895946686,-26.395591648258353
-5.439508593873419,-21.269523414552655,85.6696947834314
-22.736678333519507,-6.2614265488512375,-239.0946600703949
17.587084054702643,0.9931430241683269,-315.3488433627406
13.340877776105016,44.59603257343971,201.7999217406864
-1.092616130553184,12.32170161676458,-259.3260274431926
-23.644145350949817,11.126869563420215,-97.85776003236217
0.3839862062346433,-43.19394007384132,464.7473231500028
0.10245440682693405,-17.05008318859172,-88.59750135338598
6.918741367779948,20.593311068754907,-210.58907868336792
-1.3773040552317872,-29.871766949893143,512.3067753881859
20.684828481029687,27.652674542687098,-489.93444895255436
14.696776935137857,-18.017387929092177,-213.23359342325608
23.22226460288094,5.501572254925976,45.239016128915225
-8.393572871383258,29.66376531651697,-111.71766605151683
-34.75382675978266,2.5220174759195397,25.663954239617006
28.683269922716367,9.111582546995212,214.7291112889546
29.210465699020816,12.755899877139402,-112.39881478049189
2.1153958944636924,19.831515778266382,-189.89133023944538
2.5001966060971066,31.74312008595788,196.57981761373605
-6.616848749529386,14.38014020056259,-281.956869453525
24.139836236853995,21.43281003345246,110.96820257163158
-8.38105863357306,-12.700644520747918,-191.9716007582897
35.81725805112573,24.621296881156898,276.8959400392795
-20.008851811661486,-33.829619403072456,137.322305763854
9.298674339393578,-6.62412218603012,-108.95478529247924
52.09612265801657,21.714513877819293,-296.61572799240565
6.993604903729407,-1.913730438653143,-51.429621209544315
-12.067378834644703,13.978742149562065,-36.37527354320026
-31.846099705438526,2.625576962624376,60.75117108065243
-10.717790461055035,25.369800251251426,-69.22649270976017
23.800034056267446,43.335128388377406,-30.722698336991748
19.530852192990697,-23.13327967900608,-50.52589242230058
2.93817640399326,3.4959689857686547,225.31847774341736
17.289554524237875,6.981468527916457,60.771483301048804
23.8772510240859,-0.4155878929175486,255.34683205445114
9.173995880781233,-35.137441232612744,-216.5685731834629
-20.467894491989775,-9.331465890057185,-187.1907130000902
8.737005299049011,6.534772087115947,-106.65316456703155
-8.282642704411957,5.6162223525051,-7.8053593248906
-22.672229416229868,17.1472235875935,-7.322532543185945
36.181421531935285,4.022993595406781,-142.65188095258884
-16.085473374530284,-32.21041126383509,-25.035475313642774
-8.162083081278205,7.86096221331878,336.5371257994629
-20.189846096026926,8.02115085685749,-118.67588654475354
-8.369748381950856,-8.250039378505493,259.99793313149206
-20.750339247599566,-11.702039643465332,-254.92766912556303
14.55629011650438,12.340552343142893,-168.9563676964495
11.31924322469116,-34.75494760760259,-269.7350294890538
21.92725892289924,-8.926586939512646,23.91975359228975
13.751825705876303,16.384995050006204,33.02297703673423
0.3538531790833655,-31.42025486973125,251.04963544258237
2.148574221921737,-14.483941429122204,2.6936223012464073
7.61565377843607,-22.293507108275698,-346.89810852830993
15.29910771146239,15.7491641810584,-14.663329370508036
-8.724240633651252,29.375276379863635,-130.58540146965493
-40.389496591748696,23.22698985844838,58.05250346538314
14.09692834317564,11.185310206088568,-187.0746135418272
-38.63312501954978,22.696434845362784,-24.94770295458616
-2.1558860572657768,17.234476732029073,-238.28016463947844
25.123655175603496,11.980549913563658,287.29966339616834
-20.322966843519318,3.5076434628934514,139.82125285241756
-3.8856720157980473,-10.34284034859546,-173.15119533353936
-44.63447658223518,11.806547036765899,-22.65682478355427
14.844153585828598,4.7062977781476665,-278.10523740586837
-10.33021441287574,7.464713263307756,82.37333579658673
-4.565098709924612,0.21743350135811101,64.750734396554
-25.125754091679326,-9.63985006982528,114.164963751973
-43.18882299977113,26.099125663733286,-81.76587550398918
19.599860340415734,4.913297052468945,-103.52680261319252
8.264471392240727,-5.080878484630934,301.9904535105686
-21.62216003337801,11.595094803551046,245.93492614621178
-27.863757463620956,-3.0056576728337667,-222.1562203423242
7.325240141607598,-23.17271385391615,-97.1346639946104
29.258558061363395,-46.24912146020668,-166.72099679835097
4.384298606751107,-6.081666638582215,216.55745904671718
-2.6780736158826968,-8.739376197052199,-58.91430877922268
12.7552318370454,-44.67995532501328,32.324811909031226
9.652680524827337,3.8816936889608984,-42.31179509583992
3.711713879269192,-3.3332211166668184,199.6570435613159
-9.345617358676208,19.676825994308665,-24.055621706975156
7.205144018700507,19.831561808522622,445.69844354764695
15.201607391271084,-6.6917766638609555,174.88820466836324
-50.156913255655404,16.141805251655907,-30.83006862731809
5.922714602647595,-13.846237105420476,68.79543300304171
-10.874549271281094,-25.049488608166502,140.95965426714955
-12.157086638947485,-4.969871585450626,-309.9013074321516
17.27767181173045,10.922574642183747,319.77790675169416
12.972232925847491,-17.531677971768644,378.34326270125547
-31.65074093532183,5.947032396346464,-336.62945607434756
1.7638553366029008,17.184390410935876,-37.81758203002837
8.20522421687484,12.425172985606096,-42.47133790579179
22.64697860358531,-6.878926674656992,196.96921664441095
-14.225389216095971,5.11493153225897,170.85088200375824
9.710481668414072,30.688310527164973,101.96761891053394
12.129722584338172,-14.222500379647347,-15.431692968015096
14.519703588183663,-8.66031187604055,-353.0949196379482
7.282221545631234,13.818272821467426,-410.8418753365975
-27.932973234496213,-20.369534748022723,-287.7201597438041
-5.849893013639374,-3.9828304906984218,12.448067636280637
10.62195201701833,0.6124386389705162,192.78843403015168
20.492479220791825,7.110071208173274,-120.60653607919734
7.790624073624064,-10.59536380548143,-200.4088983244563
28.50010541067855,-23.87895404391436,15.487415138649776
-0.6758750397295739,2.6019617403979494,375.4015689481657
25.582582081666384,-8.121734051517526,71.189825946255
-12.062648259724153,12.624251401406372,0.9816319516377545
3.852275387044795,17.320159986480462,-270.95921980167265
-7.1416308841183,10.005107181143284,119.46092659899392
20.675367698871487,10.52767031102045,-276.31980503193955
-13.511632604819802,-10.970526429305236,178.97086345305559
-5.10802352813919,21.2657308738142,-192.74640898891573
2.17741847390292,36.603443990367694,-325.48471104770675
-24.941489703671913,10.710698628919546,606.3702112075996
5.212080887223412,1.3636847553169043,-75.12876919848847
-45.15017611880967,1.6223338110827898,41.05091723165611
-49.63003517699129,19.013920222120497,65.3258597007672
22.893924513062643,-7.200292437109452,157.92214459076692
-1.6841588151482247,18.711377427780103,232.9461672453136
-15.987986339239006,33.779028513287216,72.89563430807438
-39.24436601864381,3.558212760545958,-51.827770846208765
-13.873393772380169,29.16735972690845,257.2329832430923
-3.2806353618416733,-4.702239895424051,-5.266995571869017
-28.842196570106708,-7.956047110124993,-144.41282802825774
-25.874659584645965,6.102387156133759,266.52047059885706
28.958415759574763,-10.91277179114768,-154.43937155062258
2.5961960772318964,-39.749500267259464,-237.24757163999487
-13.685207020066601,-34.60729757058819,-228.84499366464985
1.3898430715647867,20.781414078046083,-384.30757039682203
6.185292858042741,-34.63515687438706,70.91636741948237
-30.889982944708105,-2.614363603146634,41.49235563555381
-5.556912573772824,25.662089250035592,-226.91349895116733
7.749922846378853,4.591904744294158,94.6263546730243
-5.995465528629485,39.263755870816524,131.731579190014
-25.232387795241785,-11.55333120507412,-130.85147993646217
-7.648812976702728,8.383379502705392,-14.350568663545923
10.743765115321633,18.21819709647652,-161.34380566969148
31.279533880966873,27.059068562632046,-90.50772858788439
9.036249210841621,18.29492914459397,-73.18035612471171
-7.419808746808627,9.277073787400278,116.59873943996865
0.9915785269306333,-30.562396458263365,-21.038279783490605
15.926857289870181,24.817843600333703,180.07764867190014
8.030270145854278,-11.105788203645002,144.35246614869934
-3.395275441949281,14.771514577900975,-178.27852505607214
13.228289694342003,-9.741630771527891,-353.49095771848
25.53582700092036,-4.133639219444364,381.2223239815078
-16.46116881647196,-30.58532831193862,39.1915090526158
-13.44634539753734,-55.36985031278946,-27.889902676654106
0.6946565264226496,-1.1847704539886716,286.21591687458323
-10.943278128195997,-7.418376160231247,-169.80759424734708
-17.474183970842763,-10.87575239129983,130.06126102225574
-6.804118371329386,-4.899198105667085,-84.36795017998972
-3.227908484163234,-10.117990140685738,-175.11143355326075
6.295005221491419,2.5900441708404642,-164.2848313105181
-5.14498640750377,-7.329675267920911,-35.14424924586434
40.01280931206779,-22.67205992681411,65.00823954884254
-22.864235518320154,24.377579821143414,-163.69835870866112
-14.712368065933974,-0.41053182352344453,298.82311618919346
-19.284772896621142,-11.011008142070262,-192.03204093638982
2.8100848235916476,-23.158822045147303,-299.53417181466995
-0.08329557423174268,19.267516456076297,128.4082077291751
25.345130021175194,-6.14048778407541,-124.72723379513415
2.2412946126321245,0.8179851685075787,-36.41506094650443
-14.121710675109185,-13.911066622303387,-124.77658657500952
-16.46021834808053,37.42044001608075,271.7777279729796
-13.915264516341239,-33.815343987209886,160.52300370190133
-9.058115838118683,0.23175842779427136,-76.60707315953915
0.9940244105722689,-13.57224395958986,-339.93870131829806
-4.242671673802708,-3.8031480152921686,-209.16099496393377
5.286831143460368,22.247681017809228,-2.0708345980133913
10.461215212429146,-22.588882316569272,-193.62850914537577
0.48855252699306684,16.190873365645572,-168.08242225196526
30.324940966329397,30.94276860714194,-26.352256974164945
-28.720754902305124,14.710603818450561,-3.073551415089395
5.518626166656192,42.87923918423733,131.66477584152324
3.498354952721611,26.90483857655326,-44.46197382932411
10.458881039059126,-5.62814037567496,-129.5723546526984
-1.5923582748186944,20.29555131413374,-269.87756556356305
-16.318756291606686,6.524277965992296,-288.3070091039277
-0.8875762747530191,-1.070346394215226,-195.12675696474838
-4.389150865861254,7.422662341080159,-79.9417959603075
-19.90158664182666,-19.71873316408782,211.77544916209547
-40.028730358520185,14.332759424424284,292.8524081886084
4.619559164223973,26.671694518652288,-30.908073626851536
-24.386844406284922,-10.47111628488931,134.17117165344843
7.680022352670527,-0.36654581296561306,369.8483653514049
19.1024170524,9.872565659492132,-486.93443481205236
26.56287153517919,8.606362441583336,114.33163673592705
21.999388637688973,7.700603964702349,70.42214763382951
-3.0454320684710194,-29.195291551819928,-48.038338077490494
9.835708271013733,-23.62596701403501,-220.81451414250074
-7.318970420710799,-12.04544873859235,-189.1020912421882
6.3172504365891236,61.04286260993387,-373.3822271692675
13.257469105923938,-13.328922120242106,-276.64295986382643
-11.146284738958457,8.627720188464762,-61.659407352082106
40.34970814650657,-43.893006679273896,173.57038928332415
-3.158741179776609,17.953275853906877,-32.325471643709555
-28.46566490570165,-22.521577191114762,-39.056946159263646
22.175503993327315,28.22146817376533,-228.28242907222028
-30.53195711494805,-75.41704676208153,455.9837567867466
0.8471414577138145,1.2108640363632635,273.65852756309386
-12.92070568307621,-17.875844250737373,342.1720016936993
5.9228570958398885,3.951577911448107,-547.2957620530461
-13.320098697938981,-45.039039302501266,-163.01719194362235
5.656037707824693,6.400365516536767,19.543248370350284
14.979669637314494,-10.823048980601426,183.11032306431503
12.603243658911135,26.731055429326375,-138.90305938314407
-42.32163203803323,4.9186761977676285,222.16012853341888
6.162846269213808,14.2434855311007,94.50236129179498
27.22715477692228,15.629522113460556,212.85583193859833
37.24132167271269,-8.899224194472811,19.3521674085553
7.488899904873971,-1.7275395441442407,-69.38196130538384
8.719610071239266,-26.227720265526784,87.06695827047187
12.190787362471443,-8.803774488290056,-185.9656017854587
3.7401415856806315,9.00680748522151,3.618423732824562
-31.7360267534074,35.10707435226245,21.705332658854378
-3.222251502503976,20.273309405902427,81.39837093894938
1.299542253457725,-13.434674321692155,-168.14318959043806
-9.413083511538511,-3.223792679409762,151.00420457595948
-7.961841790465261,-7.173892067165257,60.84972327150491
6.206255606840347,-0.6568775603317161,-146.02492882670396
-21.537415522304425,1.3357124867183892,-385.70607978042585
2.1403530218384743,-16.38731589104369,238.72700346394623
14.259683621076032,18.00474312786774,12.609317538860026
-44.601037840852406,9.832895898670929,30.68275899263606
18.184793610494417,-18.602650538787163,-252.81779984717488
53.40184713863732,8.210927692649154,-347.2896604288179
2.29311766986998,-25.89779962390175,78.43242782742473
-24.405467949074257,-30.123642195676446,-6.022526668554277
6.111481607052729,-4.176606331395487,-70.07722981975476
7.418944518993848,23.896422605710352,-146.68901890881196
-16.490693600208807,-18.696649440254436,171.9808189231832
28.64563890717052,-6.7253950354282575,419.4809547050034
-5.655359758805628,11.66313690405569,-36.34936759734949
7.503381089906734,-22.46948130335803,275.2547916901884
-15.50926846806938,-4.409275696233762,-165.7188584369534
2.092244658825669,-22.795956093425506,204.9027183497243
-16.10130432617134,9.25027312218017,24.301948452484478
-2.9394498559548716,24.97976611313094,241.74992631491682
-0.6551257953162699,-30.39516968588938,170.17335284161123
29.30630355440475,16.70113188216634,-56.16050774893597
15.21557801593949,4.380672435345035,92.24495611194757
16.480783770617606,2.346567980385803,-18.793531407931454
-26.21594851098542,-23.597424226974045,147.05359397530222
25.63717554361645,-12.591925179771554,-89.39526889782505
12.267796523413281,-9.192478893877375,260.4176236842723
-41.127215624689825,33.35135560161116,-211.1217967246534
-16.599100887964646,13.458724596453349,125.4695317390353
21.109498511361817,-3.421776416350304,-33.227696806247806
-5.693221986462548,-23.589804719246743,21.079022164659257
-14.853381006502497,9.633569774708228,-40.409258046220735
-3.986693080145753,15.648662960254846,-70.24496902796469
-20.799514265537347,-23.702578530541018,103.51149515475828
25.192413412243155,-12.577062123289389,-10.046547786485062
10.544347639445652,-1.4857390553322423,-51.245436744436155
17.855050142806704,18.636386089290014,151.49064619193763
24.4792430091959,20.671968325689004,46.17170935012479
8.232135194923183,60.71674295684932,-116.78115545543318
33.68704460217514,-11.400400470363799,74.32159960830404
-45.20506762596406,11.120206424325264,19.77728066736749
-13.060981248985259,-17.975577453636376,48.1434420332452
-39.1468288840291,-7.584194609706895,-174.3371341010867
-28.145554607137942,12.640707246214316,171.57182971871185
7.371765079134711,32.543238955684146,338.6590536088733
17.667047285949767,27.761052103497637,2.7417926808058457
-15.720322331499295,4.149522115129272,-187.415665046322
45.38417756416659,13.43124538754262,-410.35542424355674
26.11302264171949,12.079136037034937,-115.08027256947916
2.261654180589133,32.5597644895285,-55.88868059988371
34.417547449075045,9.926965004846357,-415.76718610859757
7.079274226243607,4.649053293836717,99.10128411401101
-8.423235349711922,16.81746728249857,70.46129314174402
-25.48005192801384,4.484012127307919,38.73853577605955
32.93991062157666,-6.4076919587464864,197.72736138427854
-21.157824077450158,29.669557843989903,368.7890238243337
44.5858206619603,7.1449202453963565,255.66313760580104
41.71102389884942,-15.568086772255134,-497.52478697223023
15.331634775307933,-54.21074874040264,93.27695282693128
-17.660627885695558,-18.661042537449315,251.563851394103
13.703388904141425,-13.530413784602086,-210.58081276629815
-5.870613292427813,-19.715025958875675,208.74942427662427
0.3640556748582172,20.091426557523448,415.45549184390654
13.691727992145319,24.114157086915075,164.299962583499
-13.30515814888985,8.57631243715366,133.3446716089687
-28.146450437366617,1.5172602689779868,-198.2553642129524
9.833229709304161,-36.89537219079221,228.1676832104396
-28.956779341177498,-7.596502405072418,218.19278769970597
-12.701962671044365,5.572841476117185,131.55936887568447
15.59420562856338,-5.946181517336324,-8.672590860624931
51.86466774861496,16.291349853473115,153.8822316484435
12.654062038538784,-38.056982453519,-492.0157927481831
5.5938624113587,-4.443632543420519,61.81965978003126
0.7693699036012329,-25.290342007290274,-99.79861235117508
-13.385166388138487,-54.61251768188556,-151.1584832719747
16.329388087733673,2.8111225655254475,152.33914202606354
-24.711682978984825,-47.24186137924006,12.695021308518728
-20.73673017947017,29.735874497528144,26.72517557056396
-6.783521172159778,-46.17387470578685,-332.5442026606206
-25.016044786927672,-4.830149250536738,142.30059375382132
11.929775696896696,-0.8134824093037616,-101.29493300220449
-31.11463282934711,-31.552373644971972,133.74530012700276
-14.136430406147243,31.806942662276278,19.222236768342636
-45.98363996784684,11.414424149967964,36.56174045135252
31.549101062923558,-30.73558074500783,-315.91150225320746
25.987516775581128,-1.8421505777893856,-226.6118888203836
1.3972223880339425,-12.508904304419346,-12.897882310096909
-8.199146160851692,-12.038669814994547,-112.58086989250566
-13.37681183757095,-22.619394007578464,104.34599093244728
7.5231949089970795,16.796157475437035,202.30439586801262
10.216160455773892,4.619536402549033,232.5199163113431
37.68329311731697,-15.896777194869324,0.7767293281748296
21.630423230162368,-10.15833481694931,-295.12909122106873
-26.133626773534864,-17.63484653113402,-355.43993005660604
-22.171808872578115,-13.329138232511319,-419.44023915453573
5.683824601282172,8.925164635459794,159.76346235913402
11.33139376385621,-14.069545049840412,-152.8697612886235
5.165217843415888,12.891811711875501,-140.94760271226244
-4.746851878675017,36.11532614031213,330.5284790681018
20.03690701007491,2.0859959079788855,178.29883940773456
-14.448469916778583,37.57350831554951,178.2190661174489
10.408745405848538,6.108221586321366,-253.31504009892325
-6.878297209755785,-6.553676656088813,13.46344475706083
27.652189588358567,10.138562307709766,-246.91688523458498
-2.8660936054285635,-37.641316996670334,-71.58900317199085
20.523695997883088,-9.241716767613594,127.70479939391043
-0.8871985637041958,36.86891813394275,223.94881283200422
6.09082823335596,-13.458521306144993,-65.6349814991485
-4.1853755139434705,-4.149096674077118,-115.46568953959435
3.2437456776811677,1.5796978179586894,-20.48282935616463
2.6684313812270033,-43.24666795429653,-120.70237426550582
11.761318255077228,-10.129769120655986,-28.765890012438632
-22.46505591852616,-20.541657690724314,306.0092448055406
0.5506418733859404,-19.818397625053148,115.01921794581686
13.123612186363172,-2.882951034998375,-112.57766898955903
-7.047742442321017,3.1258956914001534,-237.86497809637302
-25.506462443450427,7.687132026856666,-87.45808747188713
-34.76490441470753,-8.272820554427678,12.685015755632135
1.4436981952427992,-22.730190095902977,221.24802730337655
-12.562988191806141,0.9003491828835926,-42.099871341584176
20.24251543738068,-26.22974619505731,-87.53936916946591
-16.56440484489347,3.0873660743881732,-156.02874325120342
-2.2979074507350514,-47.048703381479484,63.90084550119881
13.292442329465352,-12.485204655672803,-22.943235854527984
-4.763295100795505,1.8262824311968813,-367.4198384720757
-18.746175021459493,24.337918790294385,99.62363309979219
1.5114563559221763,11.903988232301849,-49.46213151515786
8.895858509893905,-24.86956654456555,-123.15143285883909
-3.985238827893793,-10.640685359359527,357.2369305494002
15.177781161559285,7.758650891286866,76.74506331686793
-10.09731239429806,1.7972966839494207,-213.9565204611967
34.727786477253474,7.293639385505845,-223.55161862405944
-20.92514758865223,-27.699813744548823,247.68216355962062
22.937236445006107,-0.2685637938147658,-219.88067214331903
-21.48123782447982,-16.676424244348397,0.6849868936211136
0.1993920714436863,1.8573230013100042,-243.4854003165947
21.201233054881698,1.4959421047083346,244.07590125397886
-16.850688312045282,30.13078732447036,-27.26797566033649
20.182685201211115,-19.628561770415963,-260.1619146476418
16.525403986496443,9.266363488379938,-118.95906453045642
16.33344383884451,4.769350937765985,12.06881210391068
-13.160329437736317,-6.553165764848501,-60.21868435383183
11.61437429675219,29.777561236024177,204.78655733109278
7.059396567781437,-31.24297005202755,-187.7760444570721
-2.378384177819604,19.247590276156473,107.44065661164743
8.835770314898028,28.01818685622056,-53.32671126329836
14.19146182431464,-20.744724077703438,-128.68845550045228
-24.696617653552853,-25.89364412836111,-5.031696397970848
10.63916409594716,9.854819637010939,347.1293506280766
-26.652640205498066,21.644736082952466,-585.9684397328216
-11.794538742756517,27.155130583856213,-192.27828178432415
14.296914933705745,-4.43835056313057,-202.54227019842182
12.827792056457866,5.650596734649321,-116.99628972042377
-11.213114966705508,4.545296045302988,206.1998290398416
-4.246770176074665,3.188354421010317,-129.10111289337203
12.357914573339798,2.911044971576425,-267.084148963932
-21.80468226280226,-2.7606541192342338,625.4440288649488
-28.865673766546465,4.084388485248117,126.85316666107778
3.9018150199347366,4.537581259572316,704.701604046378
-16.697289853169977,-16.94677942629397,-465.3436616555576
-28.502259357716724,6.2193545650627,-38.352828609362014
36.38506640851186,-44.211642545445564,131.41406342373247
6.666623392138723,-24.458031901271195,155.0722007470698
53.43962357521207,15.60981786714212,-15.596253129700738
21.967808013449307,-21.00358434893333,-280.7621859273573
5.205310151151909,-30.452042353039364,95.95897647025211
-4.716500218479716,-5.988818834124658,224.3700070449004
1.5803668797534014,9.44231445697534,-50.78244546984031
-4.279370345752211,17.868058966432766,-57.47711668101265
-16.9210354128276,1.4458366437883072,361.0803371733894
-12.21081888436601,-30.646115558558158,-108.13475444969262
9.914901433729977,14.827791310071262,101.14752675526455
21.515425679692424,17.899471944642805,15.8542190631185
6.999438015495015,31.71872448041094,75.53240600618636
43.83563949173488,-4.643759972377727,62.60115333105228
9.380366791596495,-12.181457847446424,-427.5196820261506
-14.90978023357764,-7.677717809982533,107.79546473142378
-9.461250024039062,-6.3258574366322815,292.67551146673765
-25.82071153600311,-18.063742793316628,-127.98371676363283
-9.946191630322943,21.4957240234806,-16.192307481485532
-14.788533735757897,-38.71101107295899,3.421205866471259
39.0432593046267,13.621844192134931,-119.26096548688305
11.233251723319125,22.45623119116454,158.45479880288661
-8.194776786352403,-24.795340253186563,43.41818738197381
37.31588167482007,-8.793067811603434,-333.88457042080466
-22.46675705327073,-14.266767971063054,182.2185655013342
14.984675962818585,17.38429630688947,126.14863700856709
-25.464585677790893,16.567432044637755,-8.360626859171283
21.809048643947,10.604919355979888,-339.2365284332905
-9.972435675547725,-2.4019683190449976,20.86497213299173
21.105407482881915,-6.202606629285338,132.71853479751772
1.4012622249045203,37.144937020813344,-31.007979358581345
-7.262142905353503,-13.878014927346209,394.44090660770036
-14.976101917119387,1.3867019864170995,77.75758305258783
-20.23107785402695,27.716704488355024,317.2494743503646
-11.507722617939162,-27.395662034055135,484.37090697950777
0.3260879107538962,-18.219093383461754,-305.57545025622437
2.8344367706080305,29.26065153314337,-46.2155481890011
10.372012364578634,-25.20783402324846,255.73164405889557
-10.943570685114686,26.619764922506107,-287.8717368336885
-33.77252298062566,10.28653783037047,-312.6265998126548
-9.166862488942803,-28.51233838897636,40.83177763825149
26.3294116484859,-14.223750540965812,-201.6538617767245
-8.85037934038498,3.2698040404522173,148.30063363752308
-2.5933744352580574,-21.87722709251922,42.691432600031995
35.46409722801289,-13.859439509237069,-238.95039026319412
25.601268317434847,6.709023069791034,86.53392659410602
-0.6364661002540317,-3.2542558821596312,466.7373422252164
-4.740489544624445,-18.43065069263182,-125.67041536383212
6.5029806975693605,21.506749107439873,80.18449097762262
-22.01027194199493,3.915771962880444,393.5199349961463
-30.172120418388584,-4.065199779535686,-125.32311060326174
-9.59967755999426,27.59579331168675,52.339270971336646
10.681275354514817,40.546651800370796,-321.1268400964623
-3.2629627932531657,7.812249905259585,76.05243856233514
-44.90401705800294,-4.876301619003727,173.57727237386862
7.945539750186218,-26.65996170941838,-18.515855401718433
-13.131794532753807,16.498771095782836,6.895187178207997
26.956632225153754,4.2933200663502005,177.00117688190244
22.99539832241265,-44.87273875673889,-6.996495901013587
-9.529294675529833,22.069920427310493,-293.12771348290056
2.121865438547563,1.877832790509271,-308.2253615655669
-6.01334880457004,-18.462219637402214,308.6476330096681
0.1964552193061891,8.432032833223062,192.2180114838459
32.88981568222413,-27.94736772515618,206.01602590706506
22.202837524424453,12.384047095424847,-124.86673924673669
22.53240524510214,4.249243374369869,229.27220659289645
12.206446151983602,-24.664560825333393,446.3888295999556
12.100987094428577,-0.5736219641873834,-31.13624935667553
27.570478445457045,0.34990572399678976,251.226633318714
24.116548830888483,13.03824149055644,-118.05168869699807
-24.37845930011686,-19.164412710077322,-163.08964846051722
5.594474601502926,26.002241090940824,-203.60090148634202
-33.66697605802318,-13.388694551064365,53.94176787511119
8.608393064610667,-1.8142798076453128,-210.55981378507965
-39.537441591900105,-3.04004818529648,-151.5747884462326
-7.0726989626140835,-9.290556924638455,-35.085022767284094
